ply
format ascii 1.0
comment Created by Open3D
element vertex 1610
property double x
property double y
property double z
property uchar red
property uchar green
property uchar blue
end_header
-6 -4 -0.113051 114 96 106
-3 1.2 -0.260572 121 117 97
-5.3 -2.9 -0.180792 95 83 85
-1.6 -2.66454e-14 -0.130634 124 116 105
-4.8 4.8 0.0661098 98 83 119
-5.9 -4 -0.11544 78 103 81
-5.7 -4 -0.119939 106 106 116
-7.2 5.7 0.084764 116 120 102
-5.5 -4 -0.0876843 113 90 111
-2.3 6 0.0515254 103 126 81
-5 -4 -0.1071 107 114 112
-4 1.4 -0.249916 103 109 118
-6.38684 -0.0445295 -0.218046 95 121 112
-4.4 -4 -0.0846621 108 122 97
-3.6 -4 -0.0819908 114 93 115
-4.5 -1.7 -0.182718 99 80 110
-3.5 -4 -0.0213669 93 94 127
-3.4 -4 -0.0301494 84 98 110
-2.2 5.4 -0.0373561 126 100 98
-3.3 -4 -0.0106691 102 78 125
-1.9 4.9 -0.0316343 100 82 81
2.3 4.3 0.0726621 84 109 83
-3.2 -4 0.0436927 77 81 105
-2.7 -4 0.175353 15 145 224
2.7 5.1 -0.00126347 118 123 104
-4.9 4.9 0.0544093 94 90 100
4.2 -2 0.26539 0 141 242
3.8 6.3 -0.0262655 78 88 126
0.8 1.3 0.0484658 93 87 96
-2.6 -4 0.190695 0 176 222
-7.5 -0.1 -0.322627 95 121 114
2.4 2.2 0.183328 0 157 249
-6.4 -2.6 -0.21684 84 85 90
-2.4 -4 0.238476 6 151 215
-7.4 1.3 -0.205896 83 98 80
-2.4 -1.6 -0.145028 99 104 125
-2.1 -4 0.263361 0 159 255
-4.1 1.6 -0.280498 79 117 80
-6 6 0.0749737 121 111 78
7.1 2.3 0.233961 21 184 215
-5.7 6.8 0.0947996 102 127 94
-1.9 -4 0.247669 0 164 247
-4.2 -0.3 -0.240785 125 110 104
1.5 5.9 0.0352545 113 113 101
-1.5 -4 0.179006 0 159 244
-0.3 -4 0.00372924 84 116 125
-5 5.7 0.0882359 97 94 79
-2.66454e-14 -4 0.00441984 98 125 78
0.4 -4 0.0254903 121 85 121
5.5 1.9 0.335438 0 152 254
-0.9 5.8 0.00693104 107 126 121
0.7 -4 0.0258489 80 119 81
-2 7.4 0.123932 0 162 255
-2 2.7 0.111268 118 93 89
0.8 -4 0.0276776 113 83 85
-1.6 7.4 0.0487534 110 124 88
6.5 -3.3 0.198316 0 177 230
-6.45965 0.0312525 -0.250634 108 82 122
2.8 4.2 0.0741652 78 122 110
2.2 0.4 0.198054 0 160 250
-4.1 0.6 -0.231392 91 90 127
-6.5 2.3 -0.155904 81 100 93
1.1 -4 0.0594951 111 96 92
-4.6 -1 -0.246183 118 106 127
1.4 -4 0.0625443 91 81 89
-3.9 -2.5 -0.189157 98 91 104
-5.6 -2.8 -0.201301 121 94 117
2.4 3.4 0.0905058 106 98 110
1.9 -4 0.0835162 108 85 93
-3.8 -2.2 -0.252386 102 97 109
6.6 -4 0.166399 7 175 218
7.4 -4 0.120751 4 171 226
-7.5 -3.9 -0.116015 81 124 109
3.6 1.5 0.416857 14 170 226
-5.3 -0.6 -0.242629 103 118 120
-7 -3.9 -0.122458 106 95 89
-6.6 -3.9 -0.101708 115 90 111
-4 2.1 -0.24187 112 90 92
-1.8 0.9 -0.130039 107 110 81
-3.3 4.9 -0.0408538 115 104 89
-6.4 -3.9 -0.0899712 95 95 124
-3.2 1.9 -0.164299 105 101 109
-6.3 -3.9 -0.102371 105 113 122
-6.2 -3.9 -0.121938 125 118 116
-5.3 0.1 -0.256529 81 95 88
-6.2 5.1 0.108656 90 81 87
-6.1 -3.9 -0.104414 117 82 82
1.4 0.4 0.132153 18 169 215
-6 -3.9 -0.150904 123 80 127
-5.9 -3.9 -0.157255 80 106 125
-4.4 1.2 -0.297866 123 94 84
-1.1 -2.2 -0.059029 111 90 107
-1.3 0.4 -0.133164 95 98 94
-0.9 -3.3 0.030282 94 104 102
-5.4 -3.9 -0.152641 80 82 88
-5.6 0.9 -0.312083 116 127 104
-1 6.3 0.0540021 94 82 89
-5.3 -3.9 -0.112234 113 117 110
-5.8 -3.2 -0.150872 86 82 82
-3.8 2.4 -0.193151 85 96 122
-5 -3.9 -0.101452 110 104 102
-4.6 -3.9 -0.0908371 82 123 124
-4.5 -3.9 -0.105795 97 92 123
-5.2 5.2 0.0613888 108 125 121
-5.4 4.4 -0.0141064 127 116 88
-3.8 -3.9 -0.0782454 113 122 127
-2.5 3.6 -0.0984068 123 101 115
0.6 3.1 0.0407034 79 126 117
-3.7 -3.9 -0.0604014 113 116 117
-0.9 -0.3 -0.0354174 94 93 92
-3.5 -3.9 -0.076442 81 108 96
-2.8 1.8 -0.170814 120 81 127
-7 -3.4 -0.136375 95 114 123
-0.5 1.3 -0.0544941 110 114 125
-3.1 -3.9 0.0321009 87 112 99
-6.1 -3.5 -0.161389 99 112 101
-6.3 3.1 -0.0351734 118 106 99
-2.9 -3.9 0.0991118 105 106 114
-2.8 -3.9 0.15588 3 176 255
-2.66454e-14 0.8 0.0181081 93 127 81
-1.4 2.8 0.0679192 108 110 96
-2.1 -3.9 0.253036 0 177 224
-1.8 -3.9 0.27564 0 185 241
-3 6.8 0.0512891 78 118 115
-6.2 -1.5 -0.233118 89 118 85
-7.2 1.2 -0.285646 105 88 98
-4.6 -1.6 -0.29497 121 83 118
-2.6 3 -0.105687 104 123 118
-5.6 0.1 -0.297457 83 119 126
-4.1 -1.7 -0.232768 100 79 84
-1.6 -3.9 0.211509 24 182 221
-6.3 -0.8 -0.348394 117 108 106
-0.4 3.3 -0.00924438 116 95 117
-0.8 -3.9 0.0485881 116 79 108
-0.2 2.3 -0.0181269 87 109 81
-1.7 -1.7 -0.123586 112 104 92
-0.6 -3.9 0.0303059 79 116 87
-0.4 -3.9 0.0022852 123 81 106
-0.2 -3.9 0.0106955 80 126 97
-0.1 -3.9 0.00687928 110 116 90
-3.1 3.2 -0.161185 127 121 88
0.4 -3.9 0.0378071 100 115 116
-2.1 -0.9 -0.169135 90 86 91
-5.7 6 0.00225204 109 77 122
-4.5 3.8 -0.166856 124 100 82
1.1 -3.9 0.0615771 104 117 125
0.6 4.9 0.0538599 118 85 87
-2.4 -2.1 -0.106967 117 94 110
1.6 0.9 0.12564 16 162 230
1.2 -3.9 0.0659257 114 88 120
0.2 5 0.0332252 84 111 123
-4.9 -2.3 -0.219863 113 126 98
-7.2 2.7 -0.0839754 110 109 115
1.8 -3.9 0.0781962 107 110 92
4.9 -2.1 0.256787 24 158 250
-2.2 -1 -0.204068 92 81 119
7.4 -0.2 0.256424 9 178 221
-7.3 5.8 0.0869924 112 102 117
3.8 -3.9 0.148046 11 155 245
6.7 4.6 0.092062 81 87 114
-7.5 2.3 -0.149619 88 102 118
6.7 -3.9 0.158244 0 155 213
1.7 3.1 0.0770255 99 111 108
-3.3 0.1 -0.225691 103 110 101
-1 5.7 0.0135299 99 80 104
-7.4 -3.8 -0.119626 108 111 93
-7.2 -3.8 -0.111414 92 83 97
-6.9 -3.8 -0.114996 115 81 97
-6.5 -2.9 -0.142949 81 120 104
-7.2 7.4 0.151476 24 158 247
-5.4 -1.7 -0.278487 109 99 123
-1.3 1.8 -0.0588895 106 114 91
-2.2 2.3 -0.105386 84 113 90
-6.5 -3.8 -0.0568562 87 82 113
6.8 -3.2 0.186974 21 168 217
-5.6 -3.8 -0.119964 119 84 106
1.6 1.1 0.136715 0 148 244
-5.7 7.1 0.0969974 118 119 94
1.5 3.1 0.0450342 78 97 110
4.3 0.1 0.475045 0 184 246
-2 5.4 -0.0462634 108 81 85
2.9 4.3 0.0497764 84 79 104
-5.5 -3.8 -0.159699 120 84 93
-5.3 -3.8 -0.122982 84 100 93
-6.7 -3 -0.171887 93 113 122
-5.2 -3.8 -0.133327 110 83 115
-3.3 3.4 -0.120523 111 123 91
-4.9 -3.8 -0.0988354 106 99 117
-1.7 2.1 -0.0990557 79 114 84
-5.3 -3.7 -0.140901 83 92 100
-4.4 -1.5 -0.243719 89 92 127
2.8 5.3 0.00413492 126 92 119
7.4 5 0.0501225 106 106 119
-4.7 -3.8 -0.109193 98 77 105
2 5.3 0.0161601 118 100 98
-4.5 -3.8 -0.120814 103 122 82
-3.9 -3.8 -0.0859728 105 87 99
-3.7 -3.8 -0.0529299 122 106 102
-3.6 -3.8 -0.0797231 99 109 126
-0.8 0.2 -0.010395 119 119 118
-6.2 -1.7 -0.224395 120 79 124
1.5 6.1 0.0205862 90 88 105
-3.5 -3.8 -0.0844975 96 111 119
-1.4 -3.6 0.158384 13 171 220
4.6 3.5 0.166017 7 172 255
-3.4 -3.8 -0.0468432 106 101 112
-5.7 4.3 0.0720739 104 97 103
-3.3 -3.8 0.00621032 115 113 90
-3.2 -3.8 0.0380502 113 96 118
0.1 4 0.045468 83 111 89
-7.1 -3.1 -0.156421 109 109 90
-7.2 -3.2 -0.131965 97 108 121
-1.9 1.5 -0.133934 98 78 124
-5.8 2.1 -0.197914 88 78 88
-3 -3.8 0.0574174 101 101 118
-4.9 3.8 -0.0485941 78 119 112
-2.5 -3.8 0.210873 0 168 225
-4.4 -2.2 -0.253044 87 87 96
-7.5 5.8 0.0639998 94 106 80
-2.3 -3.8 0.271872 0 144 216
-3.3 -2.6 -0.172804 110 93 90
-2 -3.8 0.285551 0 160 216
1.6 5.9 0.0115413 123 109 117
-2.7 -2.7 -0.0330459 99 117 119
-4.1 6.3 0.0332525 112 91 90
-1.7 -2.7 0.0623282 119 89 93
-1.8 -3.8 0.265725 0 177 250
-1 -3.8 0.060631 112 122 102
-0.9 -3.8 0.064099 85 114 94
-0.7 -3.8 0.0107784 111 97 116
-0.6 -3.8 0.0298008 78 86 122
-6.5 1.8 -0.223873 95 88 121
-6 1.9 -0.205277 127 93 123
-3.2 5.4 0.0337412 110 80 108
-0.5 -3.8 0.00721305 105 107 99
2.4 -2.66454e-14 0.287384 0 169 234
-4.7 1.1 -0.215483 103 82 97
5.5 4.2 0.135833 21 170 247
-2.7 3.3 -0.109372 92 107 113
-1 -1.7 -0.0651987 92 118 103
-0.2 -3.8 0.0243622 79 85 111
-4.4 1.5 -0.274445 126 119 117
0.3 -3.8 0.0132699 98 100 80
-6.1 3 -0.105918 80 91 99
-3.1 -2.6 -0.11142 85 119 124
0.6 -3.8 0.0462323 117 89 106
-3.4 3.7 -0.100707 101 93 81
0.9 -3.8 0.0747467 122 92 96
-7.3 -1.8 -0.181037 88 110 106
1.3 6.7 -0.0516623 111 95 80
1.2 -3.8 0.0944469 102 107 89
-2.4 0.3 -0.1964 85 99 112
4.5 -3.8 0.179732 0 176 253
-4.7 -1.1 -0.197758 89 118 101
5 -3.8 0.177851 0 154 254
5.6 -3.8 0.181846 0 164 255
-7.4 -3.7 -0.122139 87 107 86
-7.2 -3.7 -0.11308 87 84 109
-6.9 -3.7 -0.124474 105 108 102
-3.6 -3.6 -0.0856648 91 99 124
-5.7 -0.6 -0.244498 96 90 90
-6 -2.9 -0.142706 118 78 101
-0.7 6.3 0.00259755 99 78 82
-6.6 -3.7 -0.119765 122 120 121
-6.4 -3.7 -0.136152 102 109 98
-5.8 -1.7 -0.219937 80 83 99
-1.8 2.4 -0.0499573 86 87 126
-6.1 -3.7 -0.0908841 92 94 102
-6 -3.7 -0.135165 120 89 86
-2 2.5 0.0304965 122 115 125
-5.4 -3.7 -0.139281 123 92 113
-4 4.9 -0.0138449 115 81 88
-5.1 -3.7 -0.121423 80 94 108
-3.7 1 -0.24698 86 125 88
-2.66454e-14 -2.4 -0.00115128 97 126 83
-5 -3.7 -0.125896 108 110 103
-4 0.4 -0.23164 119 99 101
-4.9 2.5 -0.207219 97 107 119
-4.9 -3.7 -0.138642 127 104 94
-3.7 -0.2 -0.252873 95 94 102
5.4 0.7 0.406462 0 181 247
-4.5 -3.7 -0.13647 116 106 97
-7.2 -0.8 -0.262566 119 85 100
-2.66454e-14 -3.5 0.0163703 113 111 99
-4.3 -3.7 -0.104039 117 80 121
-6 4.7 0.0828799 100 90 112
-7.3 4.7 0.159789 0 189 227
2.7 2 0.261906 0 147 244
-4.2 -3.7 -0.124048 84 81 112
-4.1 -3.7 -0.117583 83 127 106
-6.7 1.1 -0.286307 89 79 126
-2.1 -2.5 -0.0477271 118 85 80
-4 -3.7 -0.0961216 84 87 105
-3.9 -3.7 -0.121127 77 84 93
4.3 0.7 0.527221 0 184 232
-1.1 3.7 -0.0118187 108 127 90
3.2 -0.1 0.411931 16 141 212
-1.1 -1.2 -0.08173 126 112 115
-2.1 1.7 -0.130024 104 80 93
4.1 -1.6 0.279429 0 143 241
0.2 -2.5 0.0183413 104 98 100
-3.4 -3.7 -0.0314638 114 86 123
-2.9 -3.7 0.111036 100 89 83
2.5 0.6 0.29329 0 170 248
-5.8 1.3 -0.244894 100 81 120
2.3 0.4 0.244585 24 173 253
-5.9 -2.3 -0.238324 104 115 101
5.1 7.2 -0.130929 102 79 82
3.9 2.9 0.249475 0 164 212
-2.8 -3.7 0.166776 0 147 218
7 4.2 0.135711 0 156 254
-2.6 -3.7 0.17226 0 143 242
-5.6 -2.3 -0.279019 82 116 89
-2.5 -3.7 0.18628 0 148 228
-2.4 -3.7 0.222555 0 149 255
-4.4 5.8 -0.0210924 114 107 107
-1.9 -3.7 0.258439 5 187 227
3.1 -0.4 0.334094 0 149 213
-7.2 -0.1 -0.261969 88 112 112
-1.5 -3.7 0.228078 13 145 238
-2.7 6.6 0.0370346 89 86 117
-6.8 4.7 0.185838 5 157 255
-1.2 -3.7 0.170153 23 157 245
-4.2 -2.3 -0.217072 85 122 125
-1 -3.7 0.0600187 87 104 104
-6.8 -1.1 -0.235629 82 95 88
-6.1 -3 -0.168936 105 82 85
4.5 2.2 0.38881 12 165 228
-0.6 -3.7 0.024749 117 121 88
-0.4 5 -0.0146944 102 98 100
-0.2 -3.7 0.010563 122 124 103
-2.3 6.4 0.0538551 96 115 104
-0.1 -3.7 0.00778284 117 86 86
-3.3 -2.3 -0.177414 96 124 89
0.2 -3.7 0.0222689 113 91 109
-5.9 -2.66454e-14 -0.311424 102 110 92
-7 -2.4 -0.189886 107 125 88
-5.8 0.3 -0.284079 82 119 79
0.4 -3.7 0.0261466 90 95 89
1.1 -3.7 0.0918518 99 114 81
-3.3 -2.9 -0.124917 96 118 84
-6 0.7 -0.292643 95 81 83
-7.5 1.4 -0.288861 98 87 103
1.2 -3.7 0.0576366 125 99 99
1.4 -3.7 0.0684803 99 88 105
3.2 -2.66454e-14 0.401809 0 170 220
-0.8 1.7 -0.0125068 117 111 127
3.7 -3.7 0.178421 0 183 226
-0.9 -3.1 0.0354773 77 126 83
4.1 -3.7 0.181759 12 178 255
6 -3.7 0.208488 0 186 253
-2 0.1 -0.178118 113 88 99
7.1 -3.7 0.176138 0 167 220
-3.9 6.9 0.0659194 120 101 113
1.6 2.1 0.12331 5 176 233
-7.5 -3.6 -0.133443 101 127 90
-2.3 -2.9 0.119963 7 151 224
-7.3 -3.6 -0.0907033 106 117 117
-7.2 -3.6 -0.121354 125 78 95
-1.6 -0.8 -0.101215 112 77 99
3.1 3.7 0.10541 97 80 126
-7.1 -3.6 -0.131553 115 121 107
-7 -3.6 -0.0894279 123 87 98
-6.8 -3.6 -0.119017 99 118 87
-7 1.5 -0.253028 120 114 123
-6.6 -3.6 -0.145385 86 125 100
4.2 -1.7 0.280921 21 145 216
-5.9 -3.6 -0.119362 85 85 112
-6.8 -0.8 -0.249385 102 83 88
-1 7.1 0.0660176 88 124 126
-4.8 3.4 -0.128602 119 98 95
-5.6 -3 -0.201562 126 119 113
-5.2 -3.6 -0.12266 107 124 119
-5 -3.6 -0.126676 85 111 118
-2.8 -3.3 0.0476894 78 79 103
-4.7 -3.6 -0.140483 99 103 110
-4.6 -3.6 -0.138283 87 125 100
-5.5 0.3 -0.259592 79 81 92
-4.2 -3.6 -0.144243 79 91 85
1.6 4 0.0338627 104 124 124
-3.7 -3.6 -0.0778968 78 123 114
-7.5 0.9 -0.254691 103 116 101
3.5 6.4 0.0149952 120 97 105
-3.5 -3.6 -0.0512506 91 85 78
-3 -1.7 -0.177944 106 119 107
-3.4 -3.6 -0.0645947 110 93 121
-3.2 -3.6 0.0330043 84 123 79
-2 3.9 -0.062174 83 119 83
-3.1 -3.6 0.0462536 95 78 124
-4.7 -1.6 -0.276741 123 88 96
-0.9 2.5 -0.0402664 127 105 120
-2.8 -3.6 0.10727 124 101 89
-2.4 1.5 -0.141966 81 126 114
-2.7 -3.6 0.139477 12 181 246
-5.6595 -6.36048 0.0967792 83 102 83
5.3 5.9 -0.0125227 82 118 77
-5.6 -2.5 -0.221015 99 113 120
-2.6 -3.6 0.170044 16 152 227
-2.5 -3.2 0.156715 0 145 255
-2 -3.6 0.266633 21 187 214
-1.9 -3.6 0.267915 24 174 231
1.2 2.3 0.0763719 78 78 81
-1.7 -3.6 0.222158 1 146 223
1.8 3.7 0.0385131 125 119 98
-0.5 -3.6 0.0305324 98 79 103
-1.7 1.7 -0.126591 79 114 80
-2.6 2.9 -0.0887756 118 98 113
-0.3 -3.6 0.00900745 101 106 111
-4.7 -0.3 -0.240306 82 94 111
-1.5 -1.6 -0.106614 115 80 114
-4.6 -2.9 -0.176827 84 83 80
0.1 -3.6 0.0331495 97 125 117
-3.9 -0.9 -0.216077 117 119 123
0.4 -3.6 0.00963029 88 97 105
-6 2.8 -0.145158 94 93 111
0.5 -3.6 0.0381825 87 83 119
0.6 -3.6 0.000584599 98 89 105
-1.9 -2.66454e-14 -0.165846 126 81 119
-5.6 -3.1 -0.203998 104 101 80
4.9 5.6 0.0339265 118 97 89
1 -3.6 0.0613076 79 79 111
-3.7 5.7 0.00340567 84 95 100
-2.7 2.6 -0.122163 87 118 83
1.1 -3.6 0.0647752 122 112 106
-7 -0.1 -0.304033 96 77 112
-4.8 4.1 -0.0444945 104 98 119
-3.1 0.9 -0.161773 91 119 118
1.5 -3.6 0.090972 80 101 99
-4.8 3.7 -0.105018 103 112 95
6.6 -2.7 0.199761 15 151 226
1.9 1.4 0.130641 0 169 250
3.3 0.8 0.437619 0 185 240
4.8 -3.6 0.183194 0 172 224
-5.3 -0.9 -0.294045 92 85 90
-3.4 -1.7 -0.204183 105 112 77
6.1 -3.6 0.195137 19 165 253
-5.3 1.2 -0.289911 89 99 91
-7.2 2.5 -0.0976458 91 113 103
6.7 -3.6 0.194133 0 190 240
7.2 -3.6 0.216721 0 171 229
-6.1 5.9 0.0825932 88 103 119
-6.5 -2.1 -0.21661 111 117 108
3.2 2.3 0.27019 0 184 248
-2.2 7.3 0.118965 0 150 247
-7.5 -3.5 -0.114525 93 85 123
-1.3 -2.6 0.00670743 89 118 89
-7.2 7 0.133412 0 148 246
3 5.6 -0.0221682 99 111 124
-7.3 -3.5 -0.105838 119 124 125
7.4 0.3 0.249928 19 153 232
-7.2 -3.5 -0.125438 101 80 92
-6.9 -3.5 -0.102952 122 118 116
-6.6 -3.5 -0.146087 102 115 91
-5.1 0.7 -0.264204 100 95 121
-6.3 -3.5 -0.161393 125 80 105
-5.6 -3.5 -0.140022 123 124 104
4.9 2.9 0.254778 0 153 251
-5.5 -3.5 -0.129046 118 104 96
-5.4 -3.5 -0.116875 107 120 99
-1.3 -3.4 0.0937521 124 93 127
-4.8 -3.5 -0.183065 95 99 117
-1.8 5.9 0.0523594 109 97 81
-4.6 -3.5 -0.138184 109 96 118
3.4 2.5 0.285293 3 152 255
-4.5 -3.5 -0.130067 101 82 87
7.4 7.4 -0.115632 79 80 90
-4.3 -3.5 -0.118039 88 116 82
-1.4 1.6 -0.0682535 116 105 105
-3.8 -3.5 -0.126001 101 85 104
-6.3 2 -0.228447 120 100 112
-6.6 -1.7 -0.253355 80 124 119
-7 1.6 -0.205418 122 85 97
0.5 3.3 0.0651873 101 89 89
-3.5 -3.5 -0.0681678 120 123 81
-1 2.1 -0.0198267 118 99 87
-3.4 -3.5 -0.0779404 81 102 117
-3.3 -3.5 0.0145916 106 123 99
-0.9 -0.9 -0.0739095 103 86 78
-3.6 -2.6 -0.151987 116 92 80
-5.9 -2.6 -0.204746 121 95 98
-3.6 6.8 0.0541417 98 98 106
-2.9 -3.5 0.0309789 115 96 125
-1.1 -0.2 -0.0402771 94 107 96
-2.8 -3.5 0.0877556 112 88 79
-5.1 5.8 -0.00782583 100 98 96
-2.6 -3.5 0.175959 3 180 253
5.5 4.3 0.163409 0 142 242
-2.4 -3.5 0.194589 25 147 240
-2.2 -3.5 0.255688 16 147 255
4 2.2 0.374768 16 175 238
-2.1 -3.5 0.229577 10 171 227
-2.1 0.6 -0.180535 123 104 125
-7.5 4.6 0.143159 8 176 232
-1.9 -3.5 0.250368 0 171 220
1.3 6.9 -0.0671401 114 96 92
-1.6 -3.5 0.224527 0 171 255
-1.5 -3.5 0.167695 1 149 255
-1.3 -3.5 0.116681 105 117 81
-2 -2.7 0.0544479 85 95 122
-1.2 -3.5 0.11399 114 95 107
-1.1 -3.5 0.0684999 126 126 121
-0.6 -3.5 0.0153678 94 106 107
-0.3 -3.5 0.0424875 98 112 101
-4.2 1.7 -0.253479 89 107 79
-0.2 -3.5 0.015288 118 100 85
-0.1 -3.5 0.000534829 87 125 80
3 0.4 0.432142 25 181 255
0.5 -3.5 0.00482812 124 101 104
2.7 3.7 0.125202 0 153 218
-4.3 -3 -0.216688 103 113 97
-3.7 -3.3 -0.139068 105 113 96
-2.5 0.5 -0.187509 115 104 93
2.1 6.2 -0.0275561 92 103 88
-2.2 -2.9 0.0562808 87 97 116
1.7 2.9 0.071436 78 92 85
0.6 1 0.0516999 108 96 119
1 -3.5 0.0221612 107 83 123
1.1 -3.5 0.0556324 92 107 86
-3.8 2.3 -0.208776 101 107 109
7.4 -3.5 0.165173 0 186 253
-2.6 6.8 0.0473441 109 104 116
-6.8 -3.4 -0.140287 101 86 80
-0.2 1.9 -0.0372222 92 105 93
2.8 4 0.0646082 112 91 96
-6.4 -3.4 -0.143546 108 117 108
-6.3 -3.4 -0.163233 82 92 92
-6.1 -3.4 -0.165731 122 103 80
2.8 5.1 0.0359203 103 127 114
-6 -3.4 -0.100845 103 78 82
-5.7 -3.4 -0.144851 100 118 125
-5 -2.66454e-14 -0.311926 89 105 105
-5.5 -3.4 -0.171832 107 114 112
-5.4 -3.4 -0.161415 106 98 82
-3.8 -2.6 -0.19669 112 105 117
-2.66454e-14 6.8 0.00246843 123 124 115
-5.3 -3.4 -0.155521 110 78 96
-7 -2.8 -0.156154 104 123 95
-5 -3.4 -0.178486 90 109 78
-4.9 -3.4 -0.13966 122 86 89
-4.7 -3.4 -0.157938 78 92 80
2.6 2 0.186572 4 180 224
-4.5 -3.4 -0.15726 81 94 81
1.7 1.9 0.121227 0 157 214
-1.1 2.2 -0.0719989 106 85 100
-6.4 -1.9 -0.228504 112 119 125
-0.1 4.7 0.0140882 108 84 106
-4.4 -3.4 -0.153141 107 124 117
-6.5 1.1 -0.246529 107 84 96
-3.4 5.9 0.00369379 97 118 106
0.7 4.7 0.0697843 109 81 93
-0.2 -3 -0.0118952 83 91 101
-4.1 -3.4 -0.102862 97 82 84
-4 -3.4 -0.185891 100 119 110
-1 -0.4 -0.0512959 121 91 121
-4.1 2 -0.268409 115 125 112
-3.7 -3.4 -0.12231 112 89 106
-4.7 0.7 -0.266791 89 125 114
-7.2 -1.1 -0.238511 98 120 86
-4.7 1.5 -0.282703 87 125 86
-1.3 7 0.0552264 102 88 101
1.6 5.4 0.0651821 82 126 111
-3.6 -3.4 -0.144174 125 82 109
5 0.4 0.436337 10 172 253
-3.5 -3.4 -0.0739475 87 83 119
-6 4.8 0.0738903 123 113 113
-1.5 -0.5 -0.159702 95 118 100
-0.7 5.8 0.032947 121 88 88
-5 5.2 0.0295712 102 117 96
-0.9 -1.6 -0.0535959 94 82 77
-3.1 -3.4 0.0348971 118 86 78
-1.9 6.2 0.0117263 93 86 112
-6.7 6.1 0.105078 119 89 113
-1.6 4.2 -0.0611571 108 109 113
-3 -3.4 0.0569998 81 93 88
-3.1 -2.9 -0.134268 115 106 82
-4.5 0.4 -0.263353 127 100 127
-2.8 -3.4 0.0493985 102 127 119
0.4 -2.4 0.0221982 124 84 109
-5 2.2 -0.245048 123 91 80
-2.6 -3.4 0.133657 16 141 248
-2.5 -3.4 0.165041 18 173 233
1.3 5.1 0.0534756 111 103 82
-7.2 -1.9 -0.217392 121 78 125
-3.6 5.7 0.0104662 79 107 121
-1.9 -3.4 0.230395 0 163 240
-1 7 0.0426428 114 107 94
-1.8 -3.4 0.204711 0 166 220
-3.2 -2 -0.141436 87 98 108
-1.7 -3.4 0.179558 19 171 254
5.3 7.4 -0.161636 106 100 121
-4.7 7.4 0.0893883 125 94 87
-5.4 -3 -0.212035 102 77 113
1.1 2.8 0.0309052 107 127 84
-1.5 -3.4 0.154976 22 145 255
-1.2 -3.4 0.0652855 102 119 115
2.7 -0.2 0.313909 0 167 250
-1 -3.4 0.065384 93 125 87
2.4 6 -0.0016704 92 112 104
-0.7 -3.4 0.00956849 78 78 109
-2.4 -3.1 0.100534 122 118 109
-0.5 -3.4 0.0363916 100 92 109
-2.2 -0.5 -0.185835 82 125 97
-4.2 6.3 0.0754182 93 90 97
-4.2 -2 -0.214109 93 86 85
0.3 -3.4 0.0148997 86 82 101
-6.1 -2.4 -0.234697 115 104 77
-4.9 4.7 -0.0377077 93 92 126
-3.4 0.8 -0.27365 79 77 123
0.5 -3.4 0.00916915 100 116 119
-7.5 -1.2 -0.240993 94 94 125
-6.4 -0.4 -0.243597 122 91 79
0.6 -3.4 0.029589 112 123 116
0.8 -3.4 0.0516125 121 117 119
3 2 0.272595 15 157 212
4.3 4.6 0.0922999 120 119 118
-6.8 4.1 0.174123 19 154 244
5.7 -3.4 0.189268 0 163 250
4 7.3 -0.10875 104 82 91
-4.8 5.4 0.0509825 104 116 126
6.2 -3.4 0.166974 17 153 244
-2.9 -1.7 -0.178396 122 111 84
-7.2 -3.3 -0.117125 108 87 78
-3.7 -0.9 -0.231214 107 79 116
4 0.2 0.486173 0 144 249
-6.9 -3.3 -0.153354 93 102 79
-5.1 2.1 -0.195228 124 97 122
2.1 4.2 0.0756425 97 87 121
-5 -3.2 -0.178465 95 80 111
-6.7 -3.3 -0.107937 123 98 88
-6.5 -3.3 -0.112561 87 88 79
1.8 2.3 0.137728 14 144 229
-0.9 4.4 -0.0383002 126 127 101
-1.6 1.6 -0.105654 119 87 127
5.8 1.7 0.366265 0 187 211
-6.4 -3.3 -0.120265 108 113 121
-6.2 -3.3 -0.181677 80 96 86
-6.1 -3.3 -0.154125 78 92 123
-6.4 -1.1 -0.267406 88 101 97
1.5 1 0.139632 0 177 241
1.6 3.6 0.0899764 82 102 103
-5.9 -3.3 -0.133193 83 119 119
-5.8 -3.3 -0.14043 117 91 119
-1 -2.1 -0.0498342 115 82 105
-5.1 -3.3 -0.166274 105 86 87
6.4 1.1 0.293641 17 146 226
-6.9 2 -0.169785 124 111 127
-4.9 -3.3 -0.155607 111 92 90
-1.3 1.6 -0.11833 87 100 120
-4.7 -3.3 -0.187242 105 82 102
-3 -1.4 -0.218168 114 82 82
-4.6 -3.3 -0.160288 92 125 86
-3.9 -3.3 -0.112013 123 85 113
-3.8 -3.3 -0.126075 88 92 83
-4 6.6 0.116923 0 181 242
-3.4 -3.3 -0.0765607 113 106 108
-3.2 -3.3 -0.0243903 95 120 86
-2.7 -3.3 0.080681 81 87 115
-1.4 1.2 -0.151267 88 79 99
-7.1 -1.8 -0.238551 93 123 102
-0.8 -2 -0.0328843 103 79 86
-2.6 -3.3 0.12593 0 166 241
-4.6 0.3 -0.252517 93 126 77
-3.5 -0.7 -0.20397 87 112 86
-0.9 -1.8 -0.0442896 100 88 98
-2.3 -1.9 -0.113757 82 94 125
-2.3 -3.3 0.198903 0 174 226
-2.2 -3.3 0.174897 0 156 214
-2.1 -3.3 0.155462 18 142 255
-5.2 -0.7 -0.269988 88 124 112
-3.6 5 -0.0201079 82 126 116
-2.3 -1.8 -0.145032 108 119 98
-1.8 -3.3 0.197052 0 164 248
-5.9 2 -0.16943 115 103 96
5.6 -1.1 0.343293 0 185 255
2.8 0.4 0.371434 0 158 223
-1.3 -3.3 0.0945213 102 110 116
-1 -3.3 0.0643031 121 80 84
-0.7 -3.3 0.0255106 100 83 90
-2 -2.2 -0.0642124 93 125 104
5.2 6.1 -0.0243016 80 77 79
-0.2 -3.3 -0.014276 80 112 113
-1.7 0.6 -0.152943 91 107 109
0.7 -3.3 0.0537826 105 125 98
1.4 2.5 0.0682711 89 125 101
-1.2 6.2 0.017103 106 117 116
1 -3.3 0.0607911 115 81 88
-4.8 -2.1 -0.247095 125 99 87
-5.4 1 -0.222252 120 113 96
6.8 -3.3 0.188309 24 155 255
-3.9 1 -0.236957 116 90 121
0.1 6.5 -0.0474679 109 117 95
0.3 -2.3 0.0259611 106 112 112
7.1 -3.3 0.214768 0 165 225
-5.2 -2.6 -0.229646 111 105 113
-7.4 -3.2 -0.104648 121 99 90
-1.1 0.5 -0.061161 99 113 119
-3.4 -3.1 -0.0868337 121 127 91
-7.3 -3.2 -0.143743 81 95 125
-4.9 4.6 -0.0518962 111 122 98
-7.1 -3.2 -0.146746 125 90 86
-7 -3.2 -0.105543 77 113 100
-2.8 -1.8 -0.145659 105 77 96
-6.8 -3.2 -0.134606 80 103 80
3.5 -1.2 0.289698 0 175 215
-5.9 -1.6 -0.294551 106 123 82
-6.5 -3.2 -0.126291 112 111 84
-5.9 1.9 -0.229398 110 118 103
5.8 6.7 -0.0858633 115 116 117
-0.6 5.5 0.00470161 77 108 104
-6.9 -1.6 -0.23446 105 94 90
3.1 4.2 0.075094 120 79 84
3.2 1.8 0.347893 0 187 222
-6.4 -3.2 -0.136065 123 106 96
-6 0.6 -0.317976 88 121 79
-3.6 6.1 0.0187407 86 81 80
-6.3 -3.2 -0.125605 114 111 103
-6 -3.2 -0.126018 100 116 79
-0.5 -3.1 0.017689 92 85 96
2.6 2.3 0.216394 23 173 254
-5.5 -3.2 -0.164219 116 80 108
-0.1 -2 -0.0125762 111 95 93
-1.6 -1.4 -0.134084 84 97 115
-5.4 -3.2 -0.190917 81 77 119
-1.4 6.7 0.0228999 77 107 85
-5.1 -2.9 -0.180206 125 110 88
-5.9 4.6 0.0540394 119 93 125
-4.9 -3.2 -0.150137 80 81 88
-5.5 6.5 0.0967449 126 78 115
-4.6 -3.2 -0.172426 124 111 88
-6.6 4.7 0.177068 0 178 227
-4.5 -3.2 -0.169267 116 123 105
-6.2 7 0.162216 0 160 215
-4.3 -3.2 -0.181056 116 97 95
0.8 7.4 -0.0701511 124 78 113
-4.1 -3.2 -0.157453 98 101 103
3.1 7.3 -0.0250189 116 90 117
-3.9 -3.2 -0.167675 97 98 114
-3.5 -3.2 -0.0738074 119 104 99
-1.3 -2.9 0.0871682 99 91 102
4.3 1.5 0.517665 0 177 248
-5.5 5.1 0.0269331 77 113 109
-0.5 4.6 -0.0159772 115 84 125
-3.3 -3.2 -0.07149 109 110 84
-1.5 -1.7 -0.105052 88 82 115
-3 -3.2 0.0302013 124 83 94
4.1 2.5 0.321001 0 180 212
-0.6 1.4 -0.061339 113 117 89
-2.9 -3.2 0.0295604 120 116 109
-2.8 -3.2 0.0647739 78 91 80
-1 -1.6 -0.0269309 124 77 82
-2.7 -3.2 0.0712908 83 122 85
-1.6 -2.5 -0.00297214 81 104 127
-2.6 -3.2 0.0748466 87 118 103
-0.5 -2.9 -0.00353243 127 103 94
-2.4 -3.2 0.136849 14 175 250
-1.7 -1.4 -0.0960369 125 110 93
0.4 -3.1 -0.0106929 98 96 96
-5.3 0.2 -0.272314 107 79 85
-2.3 -3.2 0.145188 0 157 213
-6.2 7.3 0.160816 15 187 247
2.7 2.3 0.226666 0 182 228
-2 -3.2 0.198921 0 178 250
3.4 5.1 -0.00831636 104 78 109
-1.8 -3.2 0.080778 120 103 123
-0.1 2.3 -0.0190803 82 82 112
-1.6 -3.2 0.134588 0 190 232
-4.9 -0.2 -0.265423 83 105 103
-1.2 -0.1 -0.110065 85 99 120
-0.4 -2.2 -0.048334 118 105 127
-1.2 -3.2 0.0653405 77 103 99
-1.1 -3.2 0.0526987 118 101 110
-0.9 -3.2 0.0171658 107 96 121
-2.8 -1.1 -0.210956 111 77 103
-0.4 -3.2 -0.0133353 124 84 102
0.2 5.3 0.00970313 126 121 77
-0.2 -3.2 -0.0183036 126 117 95
-0.1 -3.2 0.0198406 115 103 77
4.9 2.4 0.33961 0 174 236
-5.9 -2.7 -0.178759 116 92 87
0.7 -3.2 0.0190584 77 90 125
7 -3.2 0.222775 12 167 221
-7.4 -3.1 -0.128873 81 121 86
-1.1 -1.3 -0.0830539 104 98 125
-7.4 -0.6 -0.225538 84 111 94
-7.3 -3.1 -0.1255 125 112 111
-5 2.4 -0.243916 80 122 81
-7.2 -3.1 -0.133008 125 90 80
-5 -0.2 -0.2631 88 103 91
-7 -3.1 -0.157978 94 108 79
-5.6 5.1 0.109039 117 126 80
-5.2 -2.1 -0.245528 117 125 127
-6.6 -3.1 -0.111414 91 79 96
2 7.3 -0.0595565 87 113 99
-6.5 -3.1 -0.148128 116 113 91
-1.1 -0.1 -0.0585425 105 93 118
-6.4 -3.1 -0.134842 106 127 123
-6.2 -3.1 -0.126209 117 102 98
-5.4 2.3 -0.209605 109 110 79
-5.9 -3.1 -0.136439 124 80 110
4.1 1.9 0.440346 0 159 229
-5.7 -3.1 -0.190865 111 118 107
-2.5 6.4 0.0659962 79 92 80
-3.8 3.8 -0.106109 101 114 85
-4.6 2.1 -0.2102 112 83 122
-5.4 -3.1 -0.175556 116 98 104
-4.9 -3.1 -0.212293 95 91 114
-4.4 -3.1 -0.223226 100 111 96
-1.2 0.7 -0.118289 98 103 80
-2.9 -2.4 -0.118663 121 123 126
-5.7 6.7 0.097355 111 122 101
-4.3 -3.1 -0.2058 121 120 101
-6.5 7.4 0.174225 0 142 225
2.3 4.8 0.0517032 103 114 94
-6.3 2.9 -0.110239 101 87 87
0.2 -2.6 0.000362168 101 97 104
-5.8 1.4 -0.257768 84 96 85
-4.2 -3.1 -0.194153 89 102 117
-3.7 -3.1 -0.119355 98 95 113
-6.9 -2.2 -0.208629 78 124 127
-3.2 -3.1 -0.0768284 127 94 98
-6.7 0.6 -0.287981 81 106 119
-2.7 2.1 -0.136916 102 121 105
-3 -3.1 -0.0554396 84 100 125
1 1.3 0.064226 125 118 111
-2.7 -3.1 0.0788392 92 127 118
-2.6 -3.1 0.0834454 99 123 84
-6.4 -2.2 -0.185616 112 115 89
-5.4 -2.3 -0.229234 119 99 81
6.6 -1.6 0.268333 9 167 255
-2.5 -3.1 0.0485594 113 124 90
3.4 3.3 0.186392 3 164 222
-2.3 -3.1 0.104907 86 98 77
-7.2 -1.6 -0.21654 83 113 80
-2.2 -3.1 0.138946 17 156 239
-3.5 6.9 0.087575 98 120 103
-1.9 -1.8 -0.0662466 117 94 123
-2.1 -3.1 0.106651 77 96 116
-5.7 -2 -0.263321 104 117 117
-2 -3.1 0.153664 0 148 216
0.8 2.7 0.0369489 87 113 124
-1.8 -3.1 0.0976986 90 123 92
-1.7 -3.1 0.163133 0 159 255
0.2 3.9 -0.0161375 89 124 97
-4 -1.9 -0.190575 95 121 101
-1.2 -3.1 0.0969635 127 78 123
-0.7 -3.1 0.00240317 94 109 98
-6.6 -1.5 -0.250654 104 123 107
-0.4 -3.1 -0.00757291 83 109 114
-3.8 2.9 -0.208403 86 126 102
2.9 2.6 0.212057 0 179 213
0.2 -3.1 0.0510855 97 77 86
0.3 -3.1 0.0185088 93 97 97
4.6 3.6 0.177874 0 191 216
0.8 -3.1 0.0359384 114 86 100
0.3 4 0.0943772 117 115 111
-2.3 3.7 -0.0663558 82 78 79
1 -3.1 0.0295489 97 111 104
-1.4 4.1 -0.0974807 100 91 85
5.5 -3.1 0.205167 0 166 221
6 -3.1 0.190026 0 191 216
-5.5 6.1 0.0820534 122 126 84
6.8 5.3 0.0891293 96 83 116
6.2 -3.1 0.21956 14 176 255
-7.4 -3 -0.142385 120 121 112
3.8 1.5 0.489086 6 141 254
-1 4.9 -0.0182402 101 123 96
-6.6 1.6 -0.205281 123 127 84
-7.3 -3 -0.145569 116 100 117
-7.2 -3 -0.130179 122 106 105
-6.8 -3 -0.159206 104 99 94
0.8 4.8 0.0407189 127 87 92
-6.2 -2.5 -0.253154 126 84 124
-3.9 0.9 -0.269986 95 89 119
-6.5 -3 -0.17543 117 83 109
1.4 1.2 0.110147 102 122 113
-2.2 2.8 0.055798 111 88 124
-4.4 -0.6 -0.24414 100 89 112
-6.3 -3 -0.166522 126 83 124
-7.2 1.5 -0.232454 80 81 108
2 1.8 0.1841 0 153 236
-6.2 -3 -0.159642 81 120 81
-5.7 -3 -0.164713 112 116 86
3.9 6.7 -0.0472351 100 126 90
-0.3 -2 -0.0136144 122 127 114
-5.5 -3 -0.177368 106 115 103
-4.5 -3 -0.155904 84 96 84
-4.2 -3 -0.206136 122 115 100
-2.7 1.4 -0.181762 92 79 89
-3.8 -3 -0.141005 111 109 96
-0.3 6.1 0.0278861 86 91 83
-3.5 -3 -0.137215 125 108 102
-3.3 -3 -0.121545 89 111 112
1 1.1 0.0477992 113 102 79
1 7.4 -0.018079 126 115 106
-0.6 2.6 -0.0678634 79 108 100
-2.8 -3 -0.006232 89 95 93
-2.7 -3 0.0226009 90 114 90
-1.4 -2.9 0.0368485 96 123 120
-2.5 -3 0.055662 90 105 92
-2.4 -3 0.044364 124 96 116
-0.9 3.9 -0.0400813 122 101 115
-0.9 -2.6 0.00507653 91 104 100
-2.2 -3 0.106131 105 105 97
-2 -3 0.120749 13 159 236
-3.4 2.5 -0.183243 119 94 91
-1.6 -3 0.14585 20 157 255
-1.4 -3 0.101534 115 113 118
-4.2 -0.5 -0.274537 79 112 80
-0.8 -3 -0.00491162 114 86 105
-0.4 -3 -0.024806 124 79 98
-5.4 -2.9 -0.231955 127 125 120
2.5 5.6 -0.0190266 108 109 109
-6.7 4.3 0.196565 10 157 215
5.2 3.5 0.186957 20 155 247
-2 2.2 -0.101968 102 126 106
0.3 -3 -0.00487044 82 93 117
-3.7 -1 -0.216373 115 90 87
0.6 -3 0.022789 90 119 123
-6.4 -0.6 -0.326066 87 80 113
2.7 5.6 -0.0326833 105 85 99
5.6 -3 0.208546 0 183 232
0.6 -2.4 0.0255137 96 100 107
5.8 -3 0.197572 2 141 242
0.1 6.9 -0.0169734 89 115 89
-6.6 -0.9 -0.284544 118 125 85
-7.5 -2.9 -0.176672 113 113 122
-7.4 -2.9 -0.176766 93 103 94
-1.8 1.1 -0.10967 119 114 77
5.1 2.2 0.325763 18 145 215
-3.1 -1.9 -0.182291 104 127 106
-7 -2.66454e-14 -0.208944 93 121 83
2.2 6.2 -0.0389034 114 102 87
-1 4.5 -0.0570661 84 96 81
3.5 3.6 0.142827 19 152 220
-4.4 3 -0.176808 90 101 122
-4.7 -2.3 -0.262471 125 94 120
-6.6 -2.9 -0.157284 101 107 120
-1.5 1.4 -0.12131 115 110 81
-6.4 -2.9 -0.174221 123 90 88
-6.3 -2.9 -0.188491 84 106 110
-2.2 5.8 -0.0566753 109 116 108
-1.6 2.9 0.307288 0 151 254
-2.9 -1.6 -0.180418 120 115 102
-5.6 -2.9 -0.193481 102 82 114
-2.9 0.8 -0.153224 105 85 127
-6.9 5.8 0.0908898 98 119 112
-3.7 -2.1 -0.144014 110 88 92
-5.5 -2.9 -0.233815 120 99 106
-3.2 -2.4 -0.165528 109 83 85
-6.9 -0.4 -0.29359 102 126 110
-6.7 -0.1 -0.284664 114 103 126
2.8 0.2 0.339533 9 157 228
-5.2 -2.9 -0.201402 114 111 119
-4.8 -2.9 -0.177116 122 127 104
2 3.4 0.0858807 111 124 88
-4.4 -2.9 -0.180446 119 80 107
-4.5 4 -0.134082 103 122 93
-4.3 -2.9 -0.227482 88 113 87
1.2 1.8 0.0657387 87 85 88
-1.2 5.3 -0.0278899 98 110 110
-4.2 -2.9 -0.212122 100 106 125
-1.7 -0.2 -0.153081 99 85 99
-2.4 4.4 -0.0355229 127 114 125
2.5 3.3 0.107664 103 95 109
-4.1 -2.9 -0.174505 126 81 94
0.4 7 -0.0402715 81 110 101
-3.8 -2.9 -0.208994 126 98 93
-3.7 -2.9 -0.117357 85 108 97
-4.3 -0.1 -0.229251 125 118 125
-3.9 -0.1 -0.238761 115 127 124
-5.9 5.8 0.0819584 78 110 91
-3.1 5.4 -0.0164325 94 81 103
-3.4 -2.9 -0.149403 80 84 90
-2.6 -2.9 0.0271222 103 98 93
-2.1 -2.9 0.0974146 83 99 82
3.3 1.4 0.433151 4 188 249
-1.6 -2.9 0.0602784 81 124 102
-1.5 -2.9 0.0645247 102 101 96
-1.1 5.5 -0.00559665 93 106 94
-7.1 -0.4 -0.294911 90 97 108
-1.1 -2.9 0.0120548 99 124 108
-1 -2.9 0.0364024 78 118 94
3 1.8 0.315102 0 170 218
-0.2 -2.9 0.00318555 125 98 103
-2.66454e-14 -2.9 0.00800193 78 98 126
-4.00921 1.77091 -0.149108 87 96 97
0.1 -2.9 -0.00879328 77 79 93
0.7 -2.9 0.0527711 85 124 89
-3.6 1.8 -0.257622 94 111 92
0.8 -2.9 0.060458 82 107 113
-0.6 -2.5 0.00963573 121 94 125
4.9 -2.9 0.240007 0 159 220
-3.6 -0.6 -0.194676 104 93 110
6 -2.9 0.216368 0 173 233
7.4 -2.9 0.235392 7 145 240
-3 0.8 -0.176473 107 87 118
-3.5 5.4 0.0233882 82 79 124
-7.5 -2.8 -0.157199 122 102 87
4.9 1.6 0.423532 25 183 237
-7.2 -2.8 -0.184638 97 107 109
-1.5 5.4 0.000389978 101 116 109
-7.1 -2.8 -0.180654 123 98 111
-6.9 -2.8 -0.160308 94 108 101
-0.6 -1.4 -0.0241805 110 99 84
-3.5 3.8 -0.108659 82 124 119
-6.7 -2.8 -0.178764 94 82 108
-1.6 2.1 -0.0773472 81 86 95
-4.6 2.6 -0.195288 112 109 104
-5 -2.7 -0.252213 113 93 96
-5.5 0.7 -0.23841 102 90 108
-6.6 -2.8 -0.162466 100 96 120
1.3 6.3 -0.0289012 121 95 78
-6.5 -2.8 -0.167566 116 92 120
-2.4 -0.8 -0.187093 92 87 126
-1.3 0.9 -0.11604 110 96 93
-5 -2.8 -0.182794 109 101 96
-5.5 6.4 0.0811661 101 86 88
0.4 5.7 0.0129798 116 94 119
-4.1 -2.8 -0.195346 122 120 86
-3.5 7.1 0.0774786 115 95 118
-4 -2.8 -0.219491 121 87 77
1.9 4.9 0.0682738 125 89 113
-1.9 -2 -0.0672316 96 84 82
-3.9 -2.8 -0.154853 77 83 122
-2.8 7.1 0.113935 80 93 109
-3.6 -2.8 -0.116169 80 94 78
-5.4 -0.3 -0.282458 112 81 101
3.5 0.3 0.46951 0 147 254
-3.4 -2.8 -0.131093 94 90 116
-1.9 4.2 -0.0577573 117 124 121
5.6 -2.8 0.2228 1 162 246
-4.3 -2.5 -0.24558 127 111 95
-3.2 -2.8 -0.10479 78 91 77
0.7 1.3 0.029914 123 98 77
3.9 4.4 0.0653653 95 107 90
-3.1 -2.8 -0.122618 110 87 94
-3.8 2.2 -0.249 107 109 86
-3 -2.8 -0.102593 112 99 78
-2.9 -2.8 -0.0990941 125 99 96
-6.8 -1 -0.319082 127 112 119
-4.4 5.3 -0.00326784 88 124 126
-2.8 -2.8 -0.082439 94 85 102
-2.6 -2.8 -0.0484033 92 115 88
-7.1 2.6 -0.0562371 117 104 120
-1.1 6.5 0.055541 84 87 100
2.5 0.8 0.295188 0 142 243
-2.5 -2.8 0.0296796 111 84 118
-2.3 -2.8 0.0316778 108 79 93
-2.2 -2.8 0.0723544 114 97 97
4.8 -0.9 0.343335 0 186 246
-4.7 -1.7 -0.263931 93 107 100
-3.2 0.8 -0.186912 88 93 84
-1.9 -2.8 0.0388303 115 77 88
-1.7 -2.8 0.0412081 89 113 117
1.5 1.1 0.118575 17 158 220
-1.6 -2.8 0.0384586 93 77 110
-7.5 -1.8 -0.206544 81 106 81
-1.5 -2.8 0.0110247 125 120 113
-1.4 -2.8 0.0154463 125 97 94
0.3 6.3 -0.0218226 109 80 85
-0.6 4.9 -0.0193602 77 94 95
-0.7 -2.8 -0.0196172 97 106 106
-6.2 -0.2 -0.306511 84 99 119
-0.6 -2.8 -0.00269081 106 97 105
-4.9 -0.5 -0.242995 87 81 127
-0.4 -2.8 0.0358384 117 119 111
-0.2 -2.8 -0.00885458 95 91 92
-1.6 2.4 0.0346945 82 93 92
-1.4 0.4 -0.137383 99 127 82
-2.66454e-14 -2.8 0.00596162 83 77 89
6.1 -2.8 0.196419 0 156 254
0.4 2.8 0.00737353 77 79 122
-7.5 -2.7 -0.148862 125 103 108
-1.5 5.9 0.00757885 110 115 116
0.4 0.8 0.0451204 115 79 97
1.1 5.4 0.040971 107 127 119
-6.8 -2.7 -0.162853 93 106 96
-6.6 -2.7 -0.180751 106 120 90
-4.9 6.2 0.0415538 79 122 109
-2.5 5.1 -0.0349266 81 80 120
-5.1 4.6 0.00363419 94 103 117
-6.1 -2.7 -0.177504 87 108 90
-0.7 -1.5 -0.0283197 112 99 101
-2.5 -2.7 -0.0524623 82 102 120
-3.3 0.3 -0.223876 112 122 98
-6 -2.7 -0.153391 113 84 121
-4.3 -0.3 -0.240206 116 85 92
-5.8 -2.7 -0.144774 103 86 111
-5.6 -2.7 -0.180011 94 90 87
-4.4 0.9 -0.255779 91 90 116
-5.4 -2.7 -0.222491 105 103 97
-6.4 4.7 0.193665 0 146 243
-4.4 -2.4 -0.258947 126 119 99
-5.3 -2.7 -0.213705 89 106 94
-4.2 5.4 0.0258835 121 97 125
-2.5 -1.6 -0.143386 82 87 127
-4.3 -2.7 -0.229053 125 100 106
-3.9 -2.7 -0.191421 87 81 86
-3.8 -2.7 -0.177873 96 113 81
-3.5 1.4 -0.195642 78 118 77
-3.5 -2.7 -0.142512 101 124 100
-3.3 -2.7 -0.193211 77 98 116
-1.4 -0.1 -0.13838 87 96 118
-2.4 -2.7 0.0164352 126 114 85
-1.3 3.9 -0.00901329 107 112 79
-2.2 -2.7 0.00555493 93 91 104
0.5 2.1 0.029943 106 99 125
-1.9 -2.7 0.0106499 111 98 87
-6.7 2.5 -0.115825 85 90 85
-1.9 -2.1 -0.0739085 91 80 122
-6 2.4 -0.135769 99 114 117
-1.2 -2.7 -0.0266582 107 92 123
5.5 -1.1 0.331756 19 180 227
-2.9 -1.9 -0.143916 122 119 100
-6.5 6.5 0.118497 19 153 239
4 5.6 0.00543807 116 83 85
-1.5 4 -0.014895 125 77 110
-1.1 -2.7 0.0247529 101 112 118
-3.1 -2 -0.184652 84 101 118
-0.9 -2.7 0.00420429 93 95 104
-6.5 -2.2 -0.210217 83 94 111
-0.2 -2.7 0.00824554 122 82 88
-0.1 -2.7 -0.00866107 108 77 100
0.5 -2.7 0.0155886 90 94 103
6.3 -2.7 0.198221 1 159 248
1.3 6.4 -0.0244589 109 126 123
-7 2.9 -0.0294119 91 119 94
-7.5 1 -0.238699 108 102 110
-7.2 -2.6 -0.132045 104 111 90
-4.4 0.2 -0.253531 95 107 82
-7.1 -2.6 -0.151924 115 120 86
-7 -2.6 -0.183844 84 97 85
-6.7 -2.6 -0.123567 104 88 110
-5.6 5.8 0.0714291 90 91 109
-6.6 -2.6 -0.174627 93 111 80
-0.4 -2.3 0.0252352 82 116 94
3.3 4.7 0.0610666 79 107 111
2.1 1.9 0.198943 0 148 255
-2.2 -2.4 -0.0352322 116 118 97
-6.5 -2.6 -0.162983 114 105 84
-5.3 2.4 -0.238502 87 109 91
-6.2 -2.6 -0.150198 90 93 101
4.1 2.3 0.356039 0 156 242
-6.1 -2.6 -0.154149 104 81 92
-6 4.2 0.0754286 98 111 125
-5.8 -2.6 -0.22222 82 121 104
-5.7 -2.6 -0.176319 92 109 113
-7.3 -0.2 -0.281013 114 90 82
-5.5 -2.6 -0.194233 105 125 91
-4.7 1.2 -0.247464 87 84 91
-5 -2.6 -0.228163 126 120 81
6.3 0.5 0.319091 0 189 232
2.7 0.7 0.319822 14 144 218
-4.9 -2.6 -0.210775 107 88 113
-4.7 -2.6 -0.185161 107 106 116
-4.5 6.5 0.0364998 121 117 92
-3.4 -1.9 -0.212742 110 91 117
3.6 1.1 0.473453 0 161 243
-3.7 -2.6 -0.180244 92 116 101
-1.4 5.6 -0.0417751 122 91 120
-3.4 -2.6 -0.133785 90 114 104
-7.1 4.4 0.128125 18 151 237
-2.9 -2.6 -0.108447 83 126 123
-2.8 -2.6 -0.0841181 98 110 80
-0.6 7.3 0.00502202 113 85 86
-4.5 -1.6 -0.232749 88 107 82
-2.6 -2.6 -0.0328109 86 114 96
-4.7 -1.9 -0.284395 92 122 100
-2.4 -2.6 -0.0575161 120 84 90
-2.4 3.8 -0.0604944 88 101 113
-2.3 -2.6 -0.0218961 109 79 91
-4.2 2.3 -0.193554 89 123 85
-1.5 4.4 -0.0127443 124 112 96
-2.1 -2.6 -0.0117958 80 106 94
-2 -2.6 0.0115935 94 119 121
-2.6 4.1 -0.0936942 118 118 124
-1.4 -2.6 0.0625234 122 91 88
-0.7 -2.6 0.0138241 101 109 105
-7.4 0.9 -0.274368 88 118 79
-7.2 2.4 -0.157018 91 100 121
-0.5 -2.6 0.00189434 108 102 115
-0.4 -2.6 -0.00596143 109 90 91
0.9 1.7 0.0331499 83 89 123
1.9 0.2 0.206329 6 153 219
0.1 -2.6 -0.0275164 113 92 101
0.3 -2.6 0.0309844 117 77 93
-2.8 -0.6 -0.243432 103 91 83
3 2.3 0.248046 0 155 231
4.4 -2.6 0.233537 0 161 250
6.6 2.4 0.234432 11 189 226
4.8 -2 0.263276 25 156 227
-2 4 -0.104025 100 121 87
4.8 -2.6 0.23163 0 168 226
5 -2.6 0.235246 0 148 255
5.1 -2.6 0.24129 3 151 236
0.4 3 0.0223027 107 113 109
-5.3 0.3 -0.288907 88 111 108
5.2 -2.6 0.239466 14 161 215
2.1 3 0.112094 96 116 95
-7.3 2.3 -0.13301 109 117 79
-1.2 -2.3 0.00973416 83 95 108
2.2 3.3 0.1033 106 94 119
5.5 -2.6 0.211996 16 148 234
-5.6 1.8 -0.253851 102 96 87
-1.1 -2.1 -0.0631791 84 107 93
2.2 1.8 0.200118 0 178 215
6 -2.6 0.218614 7 172 235
6.7 -2.6 0.209294 22 160 222
-0.2 -2.5 0.00336905 96 113 109
-1.7 -1.3 -0.106926 102 81 84
-7.3 -2.5 -0.175337 107 100 123
-7 -2.5 -0.180919 91 124 94
-2.7 0.8 -0.211672 92 94 91
-6.6 -2.5 -0.206029 97 84 78
-6.4 -2.5 -0.223826 91 91 83
-6.3 -2.5 -0.166262 121 94 77
-6.1 -2.5 -0.18046 127 126 105
-6 -2.5 -0.183735 117 82 112
-5.4 -2.5 -0.21118 97 90 82
-4 -0.2 -0.219064 107 78 123
1.3 2.4 0.0762384 98 92 88
-5.3 -2.5 -0.210824 120 121 92
-4.7 -2.5 -0.189644 124 91 102
6.4 5.8 0.0249143 127 107 88
-5.4 -1.9 -0.233637 116 110 100
-5.1 6.8 0.113022 86 126 107
-4.6 -2.5 -0.245828 127 80 90
-4.4 -2.5 -0.245076 82 109 126
-4.2 -2.5 -0.208027 127 81 114
-6 -0.4 -0.275541 124 126 113
-3.7 -2.5 -0.176549 105 81 82
6.1 -2.66454e-14 0.361329 12 162 243
-4 2.5 -0.174947 79 122 118
-4.2 -1.7 -0.227934 109 100 122
0.4 1.2 0.0409834 83 127 84
-5.7 0.9 -0.233376 104 106 91
-7.2 5 0.167083 0 142 238
-3.6 -2.5 -0.19636 116 98 85
-3.5 -2.5 -0.131441 96 105 108
-7.3 0.8 -0.280685 85 84 94
-4.1 3.3 -0.174444 77 125 102
-2.7 -0.8 -0.235299 102 80 119
-3.4 -2.5 -0.141441 118 90 110
-2.7 -2.5 -0.0918991 123 93 98
-6.9 -0.9 -0.277531 89 123 122
-6.2 0.9 -0.282158 84 103 99
-0.9 -1.7 -0.0431857 91 85 78
-6.4 3.1 0.0190643 120 119 102
-2.4 -2.5 -0.0592963 85 90 85
-1.8 -2.5 -0.00808478 119 81 94
6.8 -2.4 0.222313 13 143 239
-5.6 0.7 -0.315144 99 93 89
-1.5 -2.5 0.0347671 103 87 88
0.2 -2.4 0.00341925 87 99 113
6.2 0.4 0.382107 0 181 217
-1.2 -2.5 -0.0401023 88 99 87
-1.1 -2.5 -0.0398465 83 117 100
-1 -2.5 0.00418924 82 115 104
-0.8 -2.5 -0.0297879 87 116 123
-0.8 -0.2 -0.0120906 99 96 90
2.9 6.5 -0.0632739 124 94 105
-4.8 -0.5 -0.284002 81 109 119
-1.8 0.4 -0.146646 90 105 111
-3.9 6.8 0.090063 121 86 83
3.3 6.2 -0.0197117 109 109 123
-0.7 -2.5 -0.0467875 81 102 102
-4.1 5.8 -0.00775686 115 116 104
-0.4 -2.5 0.034712 102 117 115
-1.4 4.7 -0.00495264 108 117 113
-6.8 -1.8 -0.210485 98 102 98
-0.1 -2.5 0.0376051 95 104 77
-2.9 6.6 0.0563095 97 118 127
-2.66454e-14 -2.5 -0.0131349 94 85 123
-1.7 -2.2 -0.00114815 125 91 90
4.2 4.6 0.100501 127 87 81
0.4 -2.5 0.0447779 89 91 84
4.3 5.7 0.0180068 119 123 127
4.6 -2.5 0.256438 22 142 214
5 6.7 -0.0686145 113 126 92
-2 4.5 -0.0306529 87 116 124
-3.6 -2.4 -0.204075 93 87 96
5.5 -2.5 0.214132 0 149 255
7.2 -2.5 0.242021 0 176 214
-7.5 -0.8 -0.24784 78 114 99
-3.4 3 -0.1541 95 89 111
-4.3 -2.2 -0.24585 86 108 100
-7.1 -2.4 -0.173862 78 116 86
-6.9 -2.4 -0.141208 110 113 87
-0.4 4.5 -0.0201636 98 108 99
-0.7 4.3 -0.0411774 95 109 85
0.7 4.2 0.0473205 78 101 109
-6.8 -2.4 -0.210659 120 115 96
-4.5 6.9 0.0879206 90 109 103
-6.6 -2.4 -0.213476 125 92 105
-7.5 2.5 -0.0785423 84 126 88
-2.6 -2.2 -0.133518 124 90 90
-6.5 -2.4 -0.216423 78 117 79
-6.4 -2.4 -0.219171 78 92 111
7.3 0.9 0.234944 0 171 250
0.1 3 -0.00422845 124 89 83
-6.3 -2.4 -0.164682 116 81 77
-5.8 -2.4 -0.205981 78 115 115
-5 3.5 -0.0796292 124 123 87
-5.3 -2.4 -0.179002 89 93 83
-4.9 -2.4 -0.208859 89 109 82
-4.8 -2.4 -0.219678 91 78 85
-2.66454e-14 2.4 -0.0398032 114 78 125
-2.7 -1.9 -0.154374 126 123 90
3.5 1.8 0.390828 22 151 223
-4.7 -2.4 -0.237406 92 89 89
-3.7 4.3 -0.139348 117 96 115
-4.6 -2.4 -0.266117 127 127 119
-0.5 -2.1 -0.0408256 98 101 107
-6.1 -2.2 -0.202247 78 100 121
-4.1 -2.4 -0.203264 84 100 116
-5.6 -1.9 -0.240182 97 118 114
-3.3 1.6 -0.232804 81 96 85
-4 -2.4 -0.227124 93 81 90
-6.6 -0.3 -0.306809 101 96 124
5.3 2.2 0.310126 1 149 247
-3.9 -2.4 -0.180677 126 83 122
-3.8 -2.4 -0.193216 81 112 97
-3.8 0.9 -0.195128 89 95 95
-3.7 -2.4 -0.227436 119 100 98
1.9 1.6 0.165605 5 164 254
-3.5 -2.4 -0.206142 101 105 104
-0.2 1.4 -0.00286871 114 107 81
-3.8 4.2 -0.117671 110 122 102
-7 -1.8 -0.21967 91 112 114
-7 2 -0.160201 93 88 93
-3.3 7 0.0481054 89 88 107
-4.1 -0.7 -0.251095 117 101 102
-5.5 3.2 -0.148036 103 108 91
-1.8 -2.66454e-14 -0.163043 114 81 92
-3.1 -2.4 -0.147215 110 99 117
-2.3 -2.4 -0.0902657 81 111 125
-2 -2.4 -0.0351789 123 85 111
1.4 3.5 0.0473301 88 83 108
-1.7 -2.4 -0.0201153 113 105 116
1 1.2 0.0767002 91 94 109
-1.6 -2.4 -0.0314597 93 100 82
-1.4 -2.4 -0.0243363 101 79 103
-0.7 -2.4 -0.0194773 96 92 86
-2.1 0.8 -0.157351 109 114 89
-3.9 -1.7 -0.268596 122 105 90
-5.6 4.8 0.056017 96 117 114
-0.1 -2.4 -0.0367707 86 112 102
4.4 -2.4 0.232047 0 163 240
4.7 -2.4 0.256339 0 160 255
-6.8 -1.4 -0.251736 121 111 91
5.2 -2.4 0.235985 9 146 227
-0.5 7.2 0.00846928 98 120 82
5.9 -2.4 0.232567 0 168 218
-4 -0.9 -0.243887 120 95 100
-5 5.9 0.0296861 117 122 121
-7.5 -2.3 -0.150251 110 117 98
-0.8 4.7 -0.0277616 79 108 88
-6.5 4.1 0.15713 0 154 253
-5.6 1.3 -0.241515 84 85 88
-7.4 -2.3 -0.151173 103 95 87
-7.3 -2.3 -0.173733 87 103 123
3.1 5.2 0.0127759 113 92 112
-7.2 -2.3 -0.188974 120 108 85
-7.1 -2.3 -0.191647 82 79 119
-4.4 6.5 0.0754922 91 90 95
-0.7 2.1 -0.0659933 91 115 114
-7 -2.3 -0.189038 83 77 80
-6.53911 3.23326 0.0704201 92 122 95
-6.8 -2.3 -0.176139 86 97 124
2.8 6.6 -0.0292742 80 96 91
-0.3 -1.9 -0.0411239 85 118 111
-2.3 7.1 0.0934168 78 104 115
-6.7 -2.3 -0.217848 111 123 121
-6.9 -0.1 -0.282223 111 119 94
-1.3 1.3 -0.0885561 105 95 119
-6.6 -2.3 -0.188427 89 81 105
-3.9 6.6 0.0593724 90 85 89
-2 1.2 -0.151118 119 113 84
-6.5 -2.3 -0.199345 119 90 123
-4.2 4.2 -0.0940077 92 92 104
-6.2 -2.3 -0.215607 102 89 81
-4 4 -0.0962454 110 87 105
-6.1 -2.3 -0.233136 110 91 78
-7 2.7 -0.106844 98 119 108
-0.4 -0.6 0.00499533 122 125 85
-6 -2.3 -0.210595 124 102 124
-3.1 -0.3 -0.229934 113 89 109
-3 5.3 0.0119265 96 78 84
-5.2 -2.3 -0.184796 94 85 86
-5.4 2.9 -0.156913 121 101 114
-4.4 -2.3 -0.275344 89 86 89
-4.1 -2.3 -0.259644 80 101 77
-4.6 -0.3 -0.235739 83 81 104
-0.5 -1.3 -0.026639 95 82 108
-6 0.4 -0.315753 90 81 106
-3.4 -2.3 -0.1588 82 88 108
-3.2 -2.3 -0.166696 113 86 122
-4.6 1.7 -0.246514 124 86 109
-2.9 -2.3 -0.110789 91 82 95
-2.7 -2.3 -0.0594624 105 106 115
3.1 2 0.280901 0 151 212
-5.8 -1.3 -0.251573 100 119 92
-2.3 -2.3 -0.097005 110 115 104
-2.2 -2.3 -0.0936758 83 126 78
-3.4 -2.66454e-14 -0.280711 105 83 111
-4.7 5.1 0.00574483 88 105 116
-6.7 -2.1 -0.154816 84 99 96
-2.1 5.2 -0.0179692 116 85 77
4.2 -1.6 0.323534 0 185 244
-2 -2.3 -0.0857432 100 123 105
-3.3 1.1 -0.212404 98 122 100
-1.9 -2.3 -0.0146086 92 118 119
3.8 3.2 0.221265 18 150 255
-1.1 -2.3 -0.0170118 98 91 106
-0.9 -2.3 -0.0256848 116 97 86
3.2 0.4 0.445712 0 179 245
1.5 6.4 0.0096129 113 88 87
-0.5 -2.3 -0.00374737 122 93 114
-2.66454e-14 -2.3 -5.51625e-05 103 95 89
0.2 -2.3 0.0174593 91 104 86
-1.5 1 -0.0881413 80 109 94
0.5 -2.3 0.044969 113 96 104
-6.6 6.9 0.11589 77 114 117
4.5 -2.3 0.231447 0 191 251
-1.7 -1.2 -0.150355 108 96 107
2.4 0.4 0.244789 25 179 255
0.6 3.6 0.00980206 90 101 120
4.7 -2.3 0.254943 14 143 251
5 -2.3 0.24843 0 143 227
-2 -1.1 -0.129183 89 120 90
-5.9 2.5 -0.252275 121 114 127
-5.7 2.2 -0.231225 80 78 92
6 -2.3 0.236337 11 141 254
6.2 -2.3 0.235653 0 180 217
-7.5 -2.2 -0.169632 116 89 83
-7 3.7 0.119711 15 158 255
-7.4 -2.2 -0.188072 110 96 98
-0.9 1.3 -0.0318429 106 91 93
-7.3 -2.2 -0.197492 112 95 83
-2.6 -2.66454e-14 -0.233467 97 100 124
-4.5 3.5 -0.116052 86 88 109
-6.6 2.8 -0.0585133 84 94 92
-0.3 -2.2 -0.0522581 104 126 78
-0.8 -0.6 -0.0425231 90 118 88
-7.1 -2.2 -0.19288 89 78 93
-7 -2.2 -0.191802 112 95 108
-6 -2.2 -0.244977 85 109 117
-1.7 -1.1 -0.161432 80 83 87
-5.9 -2.2 -0.235953 99 80 116
-5.3 -1 -0.275691 112 101 117
-5.2 -2.2 -0.249229 103 115 107
-4.7 -2.2 -0.268713 119 125 79
-4.6 -2.2 -0.267506 111 89 104
-4.2 -2.2 -0.26853 79 118 107
-4 -2.2 -0.209959 77 89 108
-3.4 -2.2 -0.14555 95 109 98
-3.1 -2.2 -0.178832 122 127 123
-2.7 -2.2 -0.142834 121 120 120
-5.9 -1.9 -0.250373 80 102 83
-2.4 -2.2 -0.103175 107 108 113
-2.2 -2.2 -0.0555732 117 91 118
-3.8 -0.6 -0.203338 118 99 77
-2.1 -2.2 -0.0589709 122 79 117
0.1 -2 -0.0335691 81 110 117
-1.9 -2.2 -0.0711508 113 123 115
1.9 1.2 0.177158 3 179 215
-2.4 5.2 -0.044841 103 84 83
-4.2 1.3 -0.211366 115 86 110
0.1 -1.6 0.0080291 109 87 117
-1.8 -2.2 -0.0635643 82 120 108
-1.6 -2.2 -0.0434132 101 112 112
-1.5 -2.2 -0.0342324 108 85 126
0.3 4.3 0.000689939 121 115 118
-1.2 -2.2 -0.00404541 93 95 115
4.2 4.8 0.0424552 106 106 85
-0.9 -2.2 -0.0308114 94 110 91
-0.8 -2.2 -0.0228763 94 126 86
-0.5 -2.2 -0.0241334 114 111 108
-6.1 0.4 -0.240933 116 96 115
-3.4 6.1 0.0540984 88 80 98
-1.6 3.4 0.156521 19 150 240
-0.2 -2.2 -0.0308118 109 97 102
-3.5 -1.3 -0.226832 119 111 104
3.9 6.1 -0.0116859 125 100 115
-0.1 -2.2 -0.0195987 85 83 102
-2.8 3.9 -0.088776 114 79 111
0.2 -2.2 0.0172525 105 81 115
3.3 5.7 -0.0151158 107 82 123
0.4 -2.2 -0.0130344 115 114 99
5.1 -2.2 0.254862 23 141 217
-7.2 0.6 -0.261134 108 121 107
-3.7 1.6 -0.203585 79 97 101
1 1.9 0.0722835 125 122 105
-2.2 -1.6 -0.0986639 121 87 106
6.9 -2.2 0.283793 0 176 229
-7.5 -2.1 -0.191465 127 113 125
-6.3 -2.1 -0.197064 86 105 110
-6.7 0.2 -0.271519 110 101 111
-6.2 -2.1 -0.142648 122 120 116
-6 -2.1 -0.222272 86 93 110
0.4 6.9 -0.0390869 98 82 96
-5.9 -2.1 -0.23013 106 82 107
-5.6 1.1 -0.261037 86 126 78
-5.8 -2.1 -0.234747 105 115 96
-7.1 0.9 -0.248934 85 102 123
-5.5 -2.1 -0.249861 91 112 84
-5.3 -2.1 -0.210518 93 88 108
0.1 -1.8 0.0109414 109 89 102
-2.4 -1.5 -0.154943 115 77 93
-5 -2.1 -0.257905 119 90 83
-4.1 -2.1 -0.250691 123 82 123
-4 -2.1 -0.239517 123 126 77
5.5 2.3 0.269918 0 175 238
-3.9 -2.1 -0.209676 81 93 78
-2.2 -1.9 -0.102658 116 102 126
-6.5 -2 -0.21382 114 93 100
-3.9 5.7 0.0142935 126 115 94
-0.5 1.6 0.000686184 84 82 105
-1.3 5.1 -0.0586841 108 96 83
-3.8 -2.1 -0.241749 78 111 126
-3.1 -1.6 -0.140821 81 79 102
-3.5 -2.1 -0.20496 88 105 85
-1 6.8 0.0454702 80 103 122
-3.9 1.3 -0.211858 126 106 124
-3.3 -2.1 -0.177445 79 103 110
-2.1 1.2 -0.144406 89 118 124
-3.2 2.6 -0.131812 126 100 125
-2.8 -2.1 -0.12955 98 82 122
-2.7 -2.1 -0.141537 118 99 111
-2.6 -2.1 -0.110739 82 125 111
-4.8 -1.9 -0.245725 90 120 120
-3.1 -1 -0.225619 113 124 106
-2.5 -2.1 -0.124517 80 124 107
-2.3 -2.1 -0.104669 87 112 118
-4.4 0.1 -0.269032 119 85 118
-2.2 -2.1 -0.10539 97 123 103
5.7 5.6 0.0428583 115 78 114
-7.1 2.2 -0.132161 87 116 100
-1.4 -2.1 -0.0238172 86 107 105
-4.6 1.9 -0.277392 77 114 117
-0.8 -2.1 -0.057168 112 112 114
1.7 2.3 0.0785606 121 109 113
-0.6 -2.1 -0.036324 126 117 102
-0.4 -2.1 -0.0437447 86 120 95
-0.3 -2.1 -0.0146233 90 101 85
6.2 3.8 0.136241 22 157 252
0.9 3 0.0199396 86 81 77
-0.2 -2.1 -0.00895275 99 122 100
0.2 -2.1 -0.00471992 105 100 108
0.4 -2.1 0.017376 98 105 92
-6.8 0.2 -0.279197 116 92 94
5 -2.1 0.268358 0 182 213
-2.8 -0.7 -0.184431 87 92 109
5.7 -2.1 0.263137 11 178 224
-0.6 1 -0.0244742 102 83 105
-5.7 1.2 -0.275734 109 79 120
6.2 -2.1 0.255458 0 185 238
6.5 -2.1 0.233019 23 172 219
-2.9 -1.5 -0.169633 90 116 116
2.2 3.9 0.0666166 100 100 109
-4.1 2.9 -0.205919 115 87 85
-6.9 -2 -0.191005 78 98 110
-6.8 -2 -0.168599 122 121 101
-2.6 -1 -0.204103 81 78 88
-6.7 -2 -0.213598 125 126 96
-5.4 1.8 -0.265448 106 122 109
-4 5.6 0.0507474 97 114 98
-6.4 -2 -0.223487 90 104 92
-6.3 -2 -0.189185 86 117 93
1.6 5.3 0.00385014 80 85 101
-6.1 -2 -0.225279 85 125 96
-6 -2 -0.223352 81 101 105
-3.1 6.2 0.0288747 97 78 126
0.9 3.2 0.029616 93 80 124
-1.8 0.2 -0.172112 93 104 98
-5.3 0.6 -0.291392 86 84 118
-5.8 -2 -0.258648 103 82 113
0.3 1.8 0.00593204 87 100 105
-5.6 -2 -0.219294 85 97 106
-5 -2 -0.280477 83 106 95
-6.9 -1.9 -0.198643 98 102 125
-4.8 -2 -0.264476 84 95 112
-1.9 1 -0.159046 107 98 108
-4.6 -2 -0.226295 95 82 120
-1.6 -1.6 -0.104247 96 77 122
-4.5 -2 -0.209852 85 126 110
-3.5 -2 -0.199657 117 123 113
-5.2 -1.3 -0.288717 111 89 96
-2.1 -0.3 -0.226172 82 77 115
-3.3 -2 -0.200051 101 120 101
-2.7 -2 -0.129937 101 103 95
-5.5 5.7 0.0532068 79 96 83
-2.5 -2 -0.0892844 83 114 113
-2.4 -2 -0.112889 108 102 102
-1.7 -2 -0.0824996 119 103 112
-1.3 6.8 0.0712409 89 109 112
1.9 2.5 0.115902 86 77 111
-1.4 -2 -0.08053 87 83 102
6.8 7.2 -0.0766336 91 100 117
-5.1 5.3 0.0227263 108 83 85
-7.5 5.3 0.133156 3 156 252
-7.2 2.2 -0.146237 99 80 127
-1 -2 -0.0460076 124 112 108
-5.3 0.8 -0.270166 112 105 124
-0.5 -2 -0.0389064 115 88 85
0.7 1 0.0323334 110 119 119
-0.2 -2 -0.0586108 114 127 103
0.2 -2 0.0070101 100 88 86
2.3 0.6 0.246097 4 191 255
0.3 -2 0.025885 114 81 114
