ply
format ascii 1.0
comment Created by Open3D
element vertex 1265
property double x
property double y
property double z
property uchar red
property uchar green
property uchar blue
end_header
1.16665 -1.62013 2.8163 106 131 141
0.868542 -2.237 1.20097 108 124 141
2.5887 -1.3052 3.76127 139 117 126
2.41768 -1.30871 3.84311 118 145 140
2.20785 -1.27483 3.8372 139 126 102
3.20276 -1.48313 3.44355 146 104 124
0.830725 -2.51224 0.486865 127 116 132
0.322015 -1.51364 2.40355 124 145 147
0.9489 0.142568 4.08042 255 0 0
-1.05097 -2.99028 -0.405629 138 128 132
-0.0822829 -3.91623 -1.95201 118 112 102
-2.93648 -2.33887 2.11358 104 150 129
3.15415 -1.45847 3.49018 150 108 115
2.0729 -1.32261 3.74115 143 104 122
1.99188 -2.61296 0.836961 134 119 120
3.03915 -1.44231 3.50759 123 129 145
-2.61192 -3.66355 -0.273948 111 123 111
0.732179 -0.382017 4.23385 255 0 0
2.85435 -1.42273 3.57562 136 124 121
-0.899066 -3.92229 -1.09869 129 152 109
1.66623 -2.98322 0.436148 149 133 150
-1.15448 -2.53696 0.946383 121 140 111
-3.52872 -1.10065 3.44263 144 109 116
2.66084 -1.37826 3.64027 102 113 136
2.45443 -1.34654 3.7219 107 139 143
1.53525 -0.205335 5.29902 132 103 137
2.35889 -1.33138 3.76779 122 122 114
2.26189 -1.3058 3.75568 145 109 150
0.411544 -3.55334 -1.10467 110 119 122
-2.15101 -3.22428 0.582787 141 130 140
0.0205904 -3.90457 -1.40831 151 125 145
2.18531 -1.30539 3.7835 128 127 126
2.99852 -1.73062 3.59074 105 133 138
-1.14117 -1.18237 3.04196 144 135 140
-2.58494 -3.62162 -0.11997 139 142 131
-2.97442 -1.29959 3.94126 128 105 144
-0.529696 -4.43764 -1.96296 149 123 135
2.44529 -1.6406 3.75594 129 118 134
3.10049 -1.6788 3.51492 118 114 153
1.17297 -3.84922 -1.67952 113 111 135
2.85709 -1.63489 3.62316 148 146 111
2.714 -1.62466 3.68469 144 119 147
1.25437 -1.98226 1.62621 122 129 139
-0.919537 -2.91685 -0.308782 139 141 129
2.53386 -1.58481 3.76378 106 120 130
2.46477 -1.57138 3.75203 146 129 122
2.28401 -1.52085 3.85384 137 119 140
1.61238 -1.27079 3.76737 141 125 117
2.84351 -1.5257 3.60573 109 120 105
1.85759 -1.44112 3.53505 131 103 149
2.37147 -1.46635 3.77812 105 120 140
2.34007 -1.18591 4.595 115 110 139
2.18839 -1.43008 3.81769 135 124 143
-2.54688 0.377924 5.71953 255 0 0
3.11071 -1.513 3.47944 103 110 127
2.98004 -1.49146 3.47774 134 139 111
2.93605 -1.45831 3.53168 135 152 132
2.84423 -1.42586 3.5545 133 142 142
-1.49939 -2.64967 1.08447 127 126 142
2.72315 -1.6468 3.62146 104 126 136
2.75027 -1.4216 3.57799 127 136 125
0.683835 -2.67997 0.202051 111 131 124
2.68302 -1.4037 3.59554 116 106 119
-3.15042 -3.69744 -1.02046 145 124 150
2.26569 -1.39098 3.75213 121 112 121
-0.41386 -1.62032 2.19911 118 152 147
3.29363 -0.968757 4.48091 112 120 149
-0.784069 -2.9334 -0.365357 133 133 149
3.20889 -0.952093 4.52433 103 123 122
-2.54233 -3.65335 -0.95616 126 139 105
-4.38633 -1.16742 3.424 106 129 127
2.94921 -0.88105 4.60609 117 111 116
-0.779198 -2.3862 1.12221 111 111 147
0.386389 -3.32793 -0.77059 109 122 144
2.64927 -0.858073 4.63973 134 106 104
2.5567 -0.846793 4.74438 107 141 125
-3.10351 -2.9311 0.460381 148 119 105
2.4206 -0.9819 4.5912 135 106 110
-1.39216 0.511614 6.87397 152 141 126
2.41876 -1.07033 4.52976 119 138 114
-3.04044 -2.73177 0.68927 143 113 145
2.24264 -1.24689 4.20753 115 140 111
2.35976 -1.06294 4.30993 147 131 113
2.34228 -0.212347 4.97493 255 0 0
1.28327 -3.75786 -1.42685 115 139 111
2.32821 -1.11225 4.22407 127 109 149
-3.01197 -2.27612 1.97802 130 143 104
-1.1976 0.123827 6.16629 132 120 126
-0.0623132 -3.98151 -2.03091 138 114 111
2.29101 -1.14929 4.18334 149 109 122
2.18529 -1.2304 3.93301 138 103 139
0.543205 -3.35584 0.0327476 134 130 152
2.13911 -1.33353 3.80527 146 143 127
-0.323191 -2.72304 1.36355 146 122 124
0.575267 -0.35464 4.08819 255 0 0
3.21592 -1.65874 3.54888 135 142 125
3.26932 -1.55642 3.51936 110 112 108
-2.93366 -1.85414 3.19789 152 110 105
3.57742 -1.05714 4.29865 146 149 132
0.708258 -0.379002 4.2019 255 0 0
3.30195 -1.32373 3.72285 132 119 132
2.15574 -2.09166 2.16434 146 150 141
3.24344 -1.5179 3.43793 113 102 125
2.99037 -1.68077 3.53889 110 131 120
-1.85116 -1.15045 3.227 114 150 108
0.539626 -1.42275 2.85268 147 148 140
2.81561 -1.63662 3.61474 132 114 110
2.54193 -1.60222 3.67855 140 124 143
1.86171 0.082639 5.27301 255 0 0
2.22358 -1.53443 3.82551 126 112 151
-1.61745 -0.955192 3.47917 150 108 108
-2.6554 0.710505 7.52468 106 139 141
-0.0746655 -4.12833 -1.51276 120 129 107
2.63913 -2.19869 1.90797 142 103 114
3.10101 -1.70325 3.39003 105 150 133
2.01427 0.0469004 4.84429 255 0 0
1.82625 -2.20017 1.8986 115 142 152
3.12879 -1.7616 3.35089 126 150 107
2.7984 -1.74847 3.42104 145 106 140
2.2433 -1.99559 2.90924 110 146 151
-0.0258099 -2.17871 1.42448 106 109 116
-1.24192 -1.26238 2.97975 119 127 137
-0.0177693 -2.48096 0.888193 114 110 137
-2.60052 0.0595837 5.41109 255 0 0
2.71801 -1.73289 3.43866 117 123 129
0.34417 -1.64666 2.34461 137 132 134
2.52247 -1.72933 3.45877 134 151 147
2.38855 -1.70205 3.55471 147 121 116
-2.0519 -1.44925 2.69108 122 142 134
2.27156 -1.631 3.57816 110 151 127
2.09895 -1.60545 3.60863 137 139 105
-1.34501 -2.57959 0.748457 133 143 117
-2.58723 -2.86004 1.42158 140 136 139
0.591076 -0.317396 4.05249 255 0 0
-2.48694 0.112059 5.56968 255 0 0
3.06768 -1.81267 3.191 129 128 124
2.56676 -2.24938 1.86147 149 152 130
2.98321 -1.83947 3.23707 126 144 117
-1.06834 -2.82161 0.401209 121 105 153
2.87877 -1.80171 3.31579 129 141 115
-5.27204 -3.45616 -0.705527 138 150 145
-1.39126 -2.59841 1.40334 112 143 103
2.80991 -1.82726 3.32385 127 133 152
1.15069 -2.31875 1.39601 128 111 110
-4.69857 -3.66987 -0.420045 146 110 111
2.60957 -1.74929 3.35747 145 102 143
1.0686 -0.61488 4.25673 126 116 142
-3.08566 -3.35496 0.417988 126 134 111
-3.81023 -2.63368 0.723425 133 139 141
2.52946 -1.72971 3.36409 137 138 150
2.33571 -1.7392 3.49604 108 141 117
2.23418 -1.66316 3.493 116 135 142
2.64591 -1.83719 3.25701 133 136 135
2.46522 -1.78947 3.35434 131 124 110
2.3854 -1.77434 3.39853 119 111 134
1.21444 -2.47389 1.06282 132 108 121
2.14026 -1.73858 3.42804 137 112 119
-3.27487 -1.50874 3.18933 105 149 107
2.81958 -1.8839 3.10598 114 135 134
2.07785 -2.64292 0.61771 148 133 139
2.74576 -1.86353 3.12709 139 123 133
2.31918 -1.82455 3.27755 122 113 150
2.25479 -1.79161 3.2917 132 110 129
-3.06488 -2.03417 2.72481 140 122 130
2.9794 -1.93784 3.00156 131 143 141
-0.496437 -1.87378 2.28325 115 123 116
2.13555 -1.09929 4.78724 124 121 144
-0.797026 -4.16564 -1.51657 143 121 150
-4.22671 -2.23009 2.24594 118 115 110
0.85413 -3.87594 -1.88106 132 149 129
2.90457 -1.92978 2.99039 118 135 121
-2.16131 -2.33855 2.88575 103 141 109
2.58634 -1.90264 3.11089 136 118 136
1.0769 -3.5616 -1.08313 121 142 120
1.92451 -0.0562572 4.89191 255 0 0
2.49298 -1.86615 3.10547 127 109 102
0.829349 -0.220463 4.18899 255 0 0
-1.22162 -2.70604 2.05943 143 144 103
2.21736 -1.82706 3.22265 153 109 134
-0.624514 -3.84631 -0.939015 109 139 138
1.77727 -1.91833 2.37371 102 141 113
2.87274 -1.97843 2.892 137 138 127
0.782261 0.171612 4.00439 255 0 0
2.52676 -1.95462 3.01712 128 137 116
2.5054 -1.89257 3.04055 145 128 122
2.92785 -2.03145 2.82046 108 130 120
-1.94768 -1.39689 2.65749 140 128 131
-2.72852 -1.87678 3.08088 143 131 149
2.79658 -2.02339 2.85104 131 147 106
-0.2474 -0.859363 4.09037 124 103 141
0.194989 -3.88059 -1.87918 116 123 108
-0.135105 -3.03801 -0.141945 137 147 137
2.44255 -1.9925 2.93588 118 129 140
-0.0152972 -3.81055 -1.70447 124 122 147
2.36779 -1.97776 2.98247 140 104 108
2.25119 -1.958 3.02557 113 148 121
-1.13127 -2.60853 2.22658 124 129 106
-3.80446 -1.08911 3.52072 121 102 146
0.344086 -3.49203 -0.640946 124 150 106
-4.72045 -2.18039 2.3125 129 140 144
0.575353 -3.36738 -0.727498 116 124 115
2.75541 -2.06172 2.73714 133 115 104
-1.08522 -2.8515 -0.176487 137 132 110
2.48822 -2.02736 2.80473 104 107 112
0.469567 -2.42402 0.651077 122 121 108
2.1016 -1.94833 3.00809 145 129 132
2.80493 -2.11856 2.68109 143 122 127
2.91145 -1.71921 3.57895 134 114 113
0.220017 -1.63022 2.2754 120 123 127
1.18628 -0.484333 4.56324 143 120 110
2.70826 -1.70524 3.65488 127 150 146
-1.72269 -2.81283 0.320485 112 105 133
2.53221 -1.68639 3.73098 144 117 131
2.89457 -1.65372 3.55695 103 107 114
1.70968 -2.58845 0.766849 125 112 126
2.60886 -1.60001 3.68083 152 119 118
-3.68682 -2.51445 1.48443 121 139 115
2.49784 -1.60203 3.6764 140 138 147
1.25926 -1.06874 4.7919 117 115 109
3.13012 -1.73456 3.3636 119 121 126
0.987134 -3.52359 -1.04807 125 136 106
3.10772 -1.79281 3.31657 139 119 122
1.43337 -2.2937 1.35701 124 150 135
-3.04285 0.272954 5.54946 255 0 0
3.11248 -1.85656 3.19626 136 132 140
2.99506 -1.98962 2.94576 130 117 113
-3.62334 -2.01407 2.25382 146 130 132
0.200573 -3.69612 -1.32439 146 124 108
1.84986 -1.43414 3.84504 130 129 126
1.83718 -2.08997 2.18288 147 112 131
2.59295 -1.98456 2.42447 104 138 132
0.0818455 -3.68075 -0.815849 132 111 106
-2.98462 0.322096 5.62543 255 0 0
2.38715 -1.93785 2.4906 114 141 118
-1.7542 -2.76629 1.63978 152 146 141
2.30355 -1.91692 2.48209 137 127 115
-0.917218 -1.65001 2.52994 137 112 133
-1.7717 -0.25287 6.21451 147 153 131
2.34362 -2.2711 1.86272 147 108 123
0.0387018 -2.16178 2.21278 129 114 121
2.21791 -1.89942 2.53077 124 120 129
-0.791328 -3.43733 -0.358561 143 111 113
-0.652936 -1.1558 3.19888 113 127 127
1.95615 -1.84821 2.63591 148 149 137
2.71535 -2.05658 2.28462 140 135 139
2.50639 -2.03457 2.33611 110 130 120
0.10337 -0.80931 4.29231 149 141 136
2.01515 -0.128221 4.96038 255 0 0
2.44747 -2.01561 2.35934 147 152 121
-2.97461 -1.91425 2.95018 110 146 141
2.3408 -1.92074 2.35146 118 122 106
2.26007 -1.94504 2.39061 132 141 141
-0.422062 -4.40714 -2.04319 141 147 126
1.83502 -0.249498 5.03833 255 0 0
0.954724 -2.47379 0.931931 137 120 119
-3.06833 -1.2953 3.67371 118 103 114
2.08962 -1.90918 2.51613 141 110 117
0.838422 -1.38666 3.57482 104 148 121
-2.80316 -1.81568 3.47497 147 118 114
1.79492 -1.86855 2.58869 113 116 122
-2.79711 -3.26135 0.623506 146 115 135
2.20681 -1.96177 2.55756 127 139 126
0.275679 -2.91891 -0.301295 139 112 118
-3.13061 -2.78139 0.581265 106 135 142
-1.3269 -2.09404 2.70232 147 129 115
2.67435 -2.09168 2.18162 151 135 133
-2.079 -3.22465 0.566176 143 110 148
2.60003 -2.05362 2.26069 144 126 148
-1.01199 -2.79086 -0.0832609 136 129 119
-0.398281 -0.957826 3.83682 117 134 105
2.55782 -2.04125 2.25692 147 116 137
2.14604 -1.99586 2.35373 148 121 149
-1.5537 -3.29809 1.34056 112 142 108
-5.73282 -3.24821 -0.220256 110 142 134
2.05681 -1.95683 2.41861 128 120 112
1.81767 -1.92479 2.47765 109 152 119
-4.3957 -2.89317 0.263678 103 130 127
1.78372 -1.95993 2.49525 132 114 120
2.67812 -2.09282 2.10271 142 109 106
-3.22326 -0.435175 5.3952 109 112 140
-0.464124 -2.66802 0.3039 123 135 118
2.47744 -2.08863 2.18274 145 134 108
2.41593 -2.05833 2.18998 151 124 125
1.80819 -3.29989 0.180963 122 123 131
-1.23675 -2.44245 1.40205 143 103 131
2.19842 -2.09309 2.231 148 122 149
-1.56098 -3.12066 -0.676817 134 141 140
1.85798 -2.03036 2.37503 113 142 145
2.46839 -2.15383 2.08159 108 126 103
2.27725 -2.14128 2.10486 120 146 104
0.128031 0.383083 4.33097 255 0 0
1.86964 -2.01928 2.24328 150 114 105
1.94594 -2.0904 2.15867 124 118 142
2.50182 -2.18274 2.00835 124 140 109
-2.10242 -2.38662 2.29414 123 118 109
1.52063 -1.58043 2.28076 111 126 135
0.940038 -2.05486 1.60164 146 121 151
2.40264 -2.18122 2.00712 109 127 116
-1.94895 -2.71493 1.67808 139 139 135
1.34792 -2.43755 1.09568 144 123 149
2.28879 -2.18039 2.05087 144 120 151
1.82932 -2.14833 2.08368 146 116 117
0.652599 -3.2145 -0.508004 149 149 115
2.22871 -2.18937 2.10183 123 118 118
1.20444 -2.12999 1.4659 132 118 120
2.10647 -2.13167 2.11332 103 118 112
1.81502 -0.598308 4.93117 121 130 120
1.99195 -2.13738 2.08516 119 118 129
2.14794 -2.20389 2.00955 119 120 141
-3.99252 -2.6481 1.14846 107 114 128
1.92583 -2.16545 2.05124 126 147 141
2.1642 0.297128 5.1355 255 0 0
0.215773 -1.8667 2.08184 145 125 145
1.64332 -2.08543 2.18271 107 123 113
0.00939026 -1.20764 2.97143 108 106 108
2.50231 -2.31726 1.79418 148 129 121
0.922609 -0.487912 4.41191 255 0 0
2.08193 -2.1814 1.96315 152 120 125
1.97064 -2.21161 1.92798 149 149 139
1.64471 -1.04476 4.9551 146 134 124
1.88697 -2.18069 1.98181 148 120 134
0.0286537 -1.98515 2.12028 113 146 107
0.728614 -3.42468 -0.269941 149 121 105
-3.79471 -2.63597 0.812 137 110 152
1.69157 -2.17643 2.02809 115 102 106
1.60323 -2.17296 2.06161 147 103 130
-2.07827 -2.6912 1.72579 124 109 142
1.25643 -1.54953 2.3759 142 135 137
2.304 -2.3403 1.75062 143 137 126
0.369153 -1.96321 1.85866 113 120 127
2.03627 -2.24782 1.85261 109 139 147
1.00929 -1.87235 1.7044 146 143 144
-5.11008 -2.65088 1.39031 150 141 107
1.64423 -2.16433 1.9806 136 114 102
2.26996 -2.32704 1.67702 126 103 141
-0.770553 -4.45089 -2.05928 135 149 139
2.09376 -2.34436 1.71403 126 104 132
-2.63401 -3.59975 -0.0749927 135 149 126
2.33027 -2.41799 1.59342 128 142 135
-0.132429 -1.35443 3.24432 103 152 140
2.06711 -2.34953 1.62614 135 117 137
1.99626 -2.32949 1.66486 148 114 126
-2.75301 -1.82948 3.10127 106 106 110
1.87922 -2.3551 1.69176 108 139 127
1.13595 -1.54589 2.29517 143 124 133
-2.72437 -3.29549 0.487835 120 120 136
1.9477 -0.404937 4.99167 131 126 112
1.676 -2.29372 1.76006 130 136 107
2.30004 -2.45377 1.44833 104 108 113
-1.26385 -3.25485 -0.956008 104 128 131
-0.295128 -2.69221 0.165794 142 125 111
0.258765 0.317945 4.22425 255 0 0
2.23415 -2.42596 1.49991 130 146 143
1.90814 -2.37472 1.60199 120 114 106
1.87662 -2.38606 1.63039 147 133 120
2.4861 -2.09391 2.51248 105 134 107
2.29267 -2.0483 2.55014 150 104 103
2.02256 -2.03775 2.65059 120 151 121
2.76376 -2.03624 2.37627 138 106 111
-1.15203 0.54338 6.95685 144 109 124
-3.00951 0.297985 5.57949 255 0 0
-1.18414 -2.79637 0.0372726 151 123 123
-4.29769 -3.72523 -0.442091 124 132 106
-0.542108 -1.61474 2.21567 115 126 148
-4.81986 -3.75534 -0.567533 142 135 110
2.62871 -2.02064 2.4163 136 116 116
2.5972 -2.01021 2.45454 142 122 149
2.5157 -1.97536 2.45293 139 113 110
-4.17277 -1.46072 2.96905 132 147 112
2.74546 -2.07891 2.28982 125 132 139
-0.0720352 -2.58576 1.78051 105 146 144
1.91338 -2.64744 0.62969 150 140 147
2.54957 -2.33403 1.80455 125 110 133
-2.95671 0.302929 5.57816 255 0 0
2.4755 -2.45879 1.64419 135 126 127
2.37567 -2.46018 1.55417 132 130 128
2.3309 -2.31872 1.24116 152 121 144
-2.13994 -0.571451 4.26456 106 126 116
2.14623 -2.32208 1.32267 131 114 147
-1.25301 -2.65183 1.91116 117 136 143
2.28167 -1.24135 4.46282 141 151 107
0.122809 -3.76487 -1.63258 114 110 136
2.07415 -2.29078 1.37394 104 116 119
1.97276 -2.27581 1.4044 153 150 137
1.92063 -2.20371 1.40844 124 118 121
1.68743 -2.19485 1.46865 105 150 125
-3.02559 -2.05568 2.64344 138 109 139
1.62703 -2.16242 1.50048 108 132 152
0.281659 -2.19758 1.34143 134 143 109
1.42465 -2.18494 1.56888 150 143 113
1.32945 -2.17761 1.61458 117 150 151
0.639348 0.259505 4.18091 255 0 0
-0.300663 -4.40158 -2.20086 106 153 123
1.38493 -2.94177 0.579155 114 139 112
2.26574 -2.35938 1.20223 120 123 128
0.144493 -0.0296452 4.43754 255 0 0
2.06978 -2.33384 1.3044 118 149 102
1.08022 -2.93604 0.562812 148 124 108
0.458296 -0.481508 4.0918 255 0 0
-2.98348 0.224334 5.45347 255 0 0
-3.37163 -0.747129 4.11531 132 144 112
-3.54731 -2.23995 2.35752 104 119 114
1.84931 -2.30752 1.3403 130 103 139
1.73866 -2.26245 1.33716 144 108 122
1.5532 -2.23784 1.40913 139 120 119
0.805142 -0.864222 3.91996 108 137 140
1.4844 -2.19167 1.45115 113 105 103
1.25062 -2.19012 1.52962 131 114 127
-3.06002 -1.53844 3.83211 116 105 114
2.26217 -2.39391 1.07938 105 107 141
1.604 -0.288018 5.31924 128 117 138
2.08554 -2.34973 1.17988 132 107 116
1.31788 -1.91733 1.61793 125 147 135
-0.0732545 -2.38249 0.693715 149 153 110
-0.993035 -1.94419 2.54815 140 126 125
1.03734 -0.542724 4.45792 119 144 108
-2.73358 -3.4767 -0.512679 127 114 135
1.72053 -2.32765 1.26906 117 147 120
0.531169 0.224221 4.09817 255 0 0
-0.872507 -4.14131 -1.49151 124 124 134
0.244547 -3.56325 -1.07245 126 142 133
1.33719 -2.25224 1.37257 133 129 145
-3.5318 -2.18431 2.13114 151 126 113
1.26447 -2.22054 1.44171 127 107 106
-1.57497 -4.34773 -1.57503 135 132 146
-0.0481803 -2.28414 1.10321 107 106 123
-2.45735 -0.0258064 5.66771 255 0 0
2.28447 -2.46366 0.983463 151 117 119
2.157 -2.42109 1.01693 102 113 142
1.89254 -2.37236 1.13728 104 134 106
-1.47527 -3.26233 -0.91485 147 105 133
1.68378 -2.32592 1.17634 116 106 131
1.61587 -2.32075 1.20403 122 147 127
1.35538 -2.29577 1.29045 143 130 116
1.68346 -2.39733 1.11306 131 126 121
-1.41821 -3.25215 0.495931 112 150 118
1.08538 -1.86874 1.68177 114 137 109
-0.133739 -1.67709 2.18668 138 104 153
-2.19804 -4.41602 -1.48905 140 139 148
-1.32157 -0.797724 4.16231 132 130 110
1.4622 -2.35413 1.15979 131 105 114
1.29778 -2.32759 1.21235 106 148 152
1.20245 -2.31787 1.26754 144 103 110
2.1232 -2.52616 0.88973 126 107 123
1.92872 -2.46865 0.949838 137 115 114
-0.768555 -3.47905 -0.136958 143 124 135
1.73224 -2.46979 1.0075 123 130 122
1.64898 -2.43672 1.02597 106 149 149
0.585334 -2.13825 1.95262 152 110 151
-1.46829 -2.9513 1.30111 151 103 124
-2.38989 -3.25769 0.906145 141 116 118
0.225945 -3.74647 -0.840278 108 152 102
-1.05758 -0.66613 4.34884 110 132 148
-5.5547 -3.00091 0.535369 104 117 140
-3.83181 -1.11956 3.4222 105 104 152
1.44565 -2.35731 1.09002 126 133 108
1.91209 -2.55642 0.863788 125 141 135
1.04743 -1.25453 3.86733 109 148 147
0.494411 -0.139321 3.89281 255 0 0
0.504172 0.36072 4.34098 255 0 0
1.70484 -2.48323 0.90199 138 134 120
1.59279 -2.49003 0.946227 114 136 128
1.47244 -2.48851 0.976335 109 108 143
2.32652 -2.44137 1.16964 147 142 108
1.30711 -2.48293 1.06577 150 113 148
2.12406 -2.6565 0.656796 116 110 151
-1.25101 -0.963101 3.79907 146 151 136
2.05371 -2.61956 0.724907 108 122 107
-0.765479 -0.10336 5.93114 140 149 108
1.64851 -2.56531 0.817587 102 137 118
1.12964 -3.93309 -1.73754 137 144 119
1.46481 -2.52144 0.892724 143 125 127
1.26579 -2.50373 0.924288 130 104 107
1.1517 -2.49541 0.946685 152 116 120
1.08551 -2.42846 1.01138 125 148 151
1.97162 -2.62638 0.632214 145 114 152
1.87256 -1.56374 3.34884 103 146 143
1.81242 -2.6167 0.668765 116 141 102
-3.1259 0.209097 5.50147 255 0 0
-0.895706 -0.755874 4.1826 119 115 109
1.52474 -2.59229 0.79097 145 135 107
1.44834 -2.58335 0.810837 123 108 132
-0.000579296 -2.89245 -0.253554 151 151 153
1.37045 -2.53726 0.827334 122 109 118
-1.6387 -0.61189 4.18269 119 149 144
-1.97395 -2.68162 1.77796 128 140 113
2.00633 0.253842 5.05866 255 0 0
1.04744 -2.51874 0.919722 128 150 108
-1.15746 -4.00131 -1.1942 144 105 116
1.94117 -2.71558 0.531818 150 128 126
-1.79188 0.337233 6.48159 134 134 133
1.72548 -2.65746 0.600448 137 117 122
2.23505 -2.64295 1.02019 133 149 134
1.35572 -1.18504 3.98043 135 105 145
1.68692 -2.64304 0.620664 134 136 108
1.47374 -2.63395 0.691656 131 152 147
1.3577 -2.60022 0.725959 111 130 144
1.19101 -2.56266 0.76977 103 135 134
-2.98665 -1.27922 3.88843 107 140 118
1.12816 -2.57023 0.831351 117 115 130
2.0228 -2.79119 0.450513 124 119 115
-1.51238 -2.74289 0.452957 125 144 121
-0.339983 -4.25827 -1.71887 137 143 114
-1.14361 -2.63326 2.35659 125 121 136
1.95585 -2.73413 0.423892 123 108 121
-3.28583 -2.62155 1.34773 121 124 149
1.8629 -2.71529 0.475477 119 110 133
1.96032 0.170708 4.91196 255 0 0
-2.23347 -2.24046 2.89702 150 107 134
-0.332951 -2.45518 0.566586 118 132 141
1.76139 -2.72095 0.527744 118 110 140
1.44906 -2.70202 0.596864 104 103 143
-4.03894 -2.64092 0.81011 147 106 145
1.7243 -0.953967 5.03941 138 130 109
-1.56082 -2.64642 1.82887 117 145 142
1.09716 -2.59884 0.697612 102 132 138
-3.31981 -1.24074 3.17393 109 103 124
-0.027146 -3.89806 -1.99514 129 135 151
0.968626 -2.56188 0.754839 120 124 115
0.6681 -0.183403 4.06326 255 0 0
1.6124 -3.19304 0.0598283 149 104 133
2.01367 -2.80337 0.341356 121 118 126
0.720095 -2.46725 0.570914 137 106 152
-1.79332 -1.09608 3.1965 111 119 106
0.267486 -0.508125 4.40524 212 39 46
1.73541 -0.0626796 5.59993 111 106 153
1.73237 -2.77083 0.445216 151 146 105
-0.0229906 -4.19628 -2.48331 112 140 144
1.58083 -2.75888 0.461085 144 140 104
1.51499 -2.73202 0.508429 115 137 123
1.49265 -1.51297 3.34566 111 136 152
1.33959 -2.69753 0.53976 115 109 147
1.05057 -3.11663 0.208899 124 117 115
0.944464 -2.63287 0.708709 129 124 116
1.95502 -1.14535 4.6649 126 125 109
-4.95127 -2.26003 2.18051 152 147 149
1.44697 -2.96011 0.632126 129 136 152
0.00401903 -0.732796 4.23417 117 143 133
-0.639357 -3.37359 -0.212263 146 130 117
1.95627 -2.95459 0.356963 142 145 152
1.77955 -2.94534 0.41708 140 149 120
-5.35247 -3.28351 -0.361352 128 144 151
0.560797 -3.78979 -1.50706 129 120 143
1.32794 -2.84594 0.617434 135 121 111
1.03534 -2.8222 0.722366 133 138 126
2.31795 -0.584358 4.77847 114 137 110
1.98959 -2.88907 0.336829 136 136 134
1.87566 -2.85819 0.357029 123 107 116
1.39045 -2.80056 0.522719 105 138 118
-0.877916 -3.13165 -0.505399 110 141 139
-4.97263 -2.96198 0.289829 118 103 136
1.20037 -2.7487 0.596123 118 123 149
1.12693 -2.70575 0.605772 113 117 138
1.02625 -2.72984 0.666349 138 104 138
2.08532 -2.42997 1.41036 144 142 102
0.115372 -2.66147 0.163522 130 143 114
2.00465 -2.43148 1.46007 152 117 128
1.7837 -2.36982 1.51989 139 132 105
0.53218 0.0387315 3.80942 255 0 0
-0.703967 0.33669 6.48156 125 148 111
1.5944 -2.33606 1.5904 121 142 128
-4.48571 -1.67817 2.4186 113 122 146
2.1007 -2.35508 1.3774 134 143 140
1.7305 -2.28861 1.49699 118 131 126
1.59546 -2.26731 1.48593 133 128 105
-1.12946 -4.07539 -1.09908 114 119 142
1.52189 -2.23991 1.56207 125 146 129
1.44386 -2.25107 1.57755 122 131 150
1.33109 -2.219 1.63305 130 118 144
1.03047 -2.73838 1.00239 137 120 103
-1.30423 -2.55011 0.885162 106 130 145
-2.72134 -2.79951 1.575 116 151 145
1.26309 -2.32312 1.58984 115 144 115
0.139614 0.163843 4.38839 255 0 0
1.19143 -2.48811 1.33425 142 110 148
-3.75999 -1.3087 3.13118 151 120 104
-0.121203 -3.95464 -2.0451 133 104 140
0.967848 -2.58253 0.896363 130 135 147
1.16156 -2.38546 1.29618 122 149 152
1.09999 -2.43835 1.1916 104 116 143
-3.6476 -1.41524 2.9954 134 103 142
-3.05528 -2.11627 2.54547 130 139 123
-1.46091 -2.58226 0.826943 146 140 114
0.398965 -3.78902 -1.44579 147 112 147
1.01792 -2.55833 0.946564 105 123 103
1.07494 -0.38248 4.48124 255 0 0
-0.354584 -3.44865 -0.287003 119 149 114
-2.37492 -1.2725 4.15687 115 136 105
0.930758 -2.6279 0.813253 112 113 127
0.433092 -1.52488 2.45219 139 103 150
2.28366 -2.65412 1.23896 112 152 126
0.571269 0.124696 3.92895 255 0 0
-3.5577 -1.31393 3.12753 126 106 137
1.04491 -3.66038 -1.33795 115 148 104
2.26316 -2.68489 1.13054 119 111 138
-3.48232 -0.593524 5.06329 132 140 115
2.23217 -2.71115 1.02626 126 150 115
-2.521 0.0036668 5.57022 255 0 0
1.74709 -1.42916 3.46713 103 128 121
2.30604 -2.5861 1.17018 118 115 152
2.25591 -2.60522 1.12323 149 142 120
0.38529 -0.320522 4.13714 255 0 0
2.19816 -2.68211 0.931617 114 131 115
1.97702 -2.94916 0.439156 123 149 139
2.2409 -2.50978 0.954495 109 133 112
2.20012 -2.64859 0.863868 117 106 143
0.300033 -1.25164 2.90427 141 144 152
2.14168 -2.62384 0.780721 137 107 112
2.12323 -2.66249 0.707519 133 129 147
2.09418 -2.68044 0.612181 128 114 134
2.05895 -2.78005 0.523005 140 104 129
1.7428 -2.96019 0.413348 117 125 135
1.41156 -2.97874 0.517276 152 137 132
-2.72993 -2.92128 1.41695 137 149 138
1.2853 -2.94493 0.5724 135 135 133
1.68858 -3.07198 0.338664 115 140 145
0.859588 0.0490798 4.06083 255 0 0
1.55714 -3.03604 0.378474 143 133 116
0.803793 -2.60394 0.548602 131 126 105
0.403032 -2.71741 0.123625 145 147 118
1.34007 -2.97972 0.438104 109 152 135
1.81083 -3.13565 0.274813 118 130 141
-0.0176638 -4.08497 -2.26933 143 152 130
1.54717 -3.06325 0.313362 125 123 151
1.38796 -3.07849 0.326411 136 121 115
1.2832 -3.01567 0.356861 144 133 114
1.09442 -3.02863 0.484726 117 102 143
1.58215 -3.12873 0.250197 112 140 128
1.30057 -3.10326 0.29855 142 114 114
-0.0459318 -2.91506 -0.226963 121 135 121
1.18418 -3.0758 0.320002 143 105 115
1.10625 -3.02348 0.358229 131 128 126
1.69426 -3.63952 -0.20386 125 145 143
0.479222 0.379883 4.38229 255 0 0
-3.2458 -0.913596 3.83198 150 113 113
0.495835 -4.1007 -2.33495 143 125 139
1.72545 -3.17963 0.060886 123 110 129
1.5414 -3.15659 0.0797168 152 124 123
1.43392 -3.21233 0.132683 132 139 108
1.03447 -0.12169 4.26956 255 0 0
1.35007 -3.11731 0.202125 143 118 115
1.89428 0.380692 5.33995 255 0 0
-0.278311 -0.892688 3.86202 130 145 110
1.10966 -3.11776 0.229842 124 137 152
0.263436 0.0718349 4.18508 255 0 0
1.04652 -3.06434 0.297405 134 141 110
0.504306 -2.23231 1.26534 138 127 124
0.914477 -3.06104 0.30239 125 127 119
1.7734 -3.238 -0.0623714 108 135 106
0.664031 -0.715391 4.093 104 115 111
1.60093 -3.23977 0.00802942 116 130 146
1.42735 -3.17476 0.0791194 142 133 142
0.771014 -3.48334 -0.390736 130 109 123
1.32914 -3.16263 0.0567498 123 147 143
2.17068 -0.162863 4.96511 255 0 0
-5.00816 -2.34188 2.00948 133 126 152
1.22414 -3.12754 0.121047 124 143 113
1.39498 -3.53571 -0.54666 153 123 112
0.957109 -3.09863 0.242443 106 115 136
-0.203942 -4.07882 -2.04323 119 147 152
0.755018 -3.20339 -0.0210841 151 116 140
0.909032 -2.50349 0.805507 146 141 146
1.73709 -3.28322 -0.148046 105 133 146
1.56844 -3.26245 -0.0840657 131 127 128
-2.2961 -3.19732 0.798832 141 149 116
2.11924 -1.24063 4.51649 140 121 107
-0.34259 -2.59978 1.67133 134 147 114
-2.7051 -3.65754 -0.890314 149 152 137
1.85762 0.0965016 5.23904 255 0 0
1.2891 -3.6841 -1.31984 131 126 151
1.48154 -3.25744 -0.0619808 140 102 119
1.33481 -3.2462 -1.61719e-05 141 117 125
1.18571 -3.20853 0.0693673 117 141 138
-0.966888 -3.03922 0.196168 114 118 150
-3.07919 0.373546 5.70602 255 0 0
-4.31505 -2.61187 1.51993 138 141 102
0.901522 -3.17937 0.140626 147 121 140
0.785932 -3.14015 0.153261 143 136 117
1.03375 0.0121194 4.19424 255 0 0
1.7169 -3.31578 -0.240809 104 141 116
1.62266 -3.34565 -0.216396 137 115 110
1.07753 -0.0285883 4.26138 255 0 0
0.834631 -0.324782 4.26938 255 0 0
0.880206 -3.19341 0.0449032 138 112 131
-0.313422 -0.0221209 5.95308 119 103 145
-2.91006 -3.11283 0.958558 126 132 140
0.755052 -3.18634 0.0839041 141 147 136
0.472916 -2.24311 1.98764 128 132 140
-5.23193 -3.49928 -0.667781 131 130 120
-5.69531 -3.20645 -0.151116 138 126 133
1.70168 -3.37984 -0.304862 113 125 103
-1.51441 -2.61931 0.844562 111 124 129
1.45378 -1.04894 4.90021 146 138 103
-2.88861 -3.08922 1.14772 119 142 113
1.50444 -3.3496 -0.247175 121 114 107
1.40703 -3.35592 -0.183176 137 131 151
-3.33624 -0.871078 3.91175 131 126 111
1.54459 -0.432918 4.98806 129 149 138
0.19083 -3.79164 -1.41691 111 124 114
0.908368 -3.30696 -0.0799918 123 128 127
-3.46234 -2.61734 0.765215 107 119 149
0.823123 -3.2235 -0.0388783 133 110 144
0.783128 -0.998675 3.60721 151 112 152
1.64223 -3.44979 -0.430041 138 152 109
1.48571 -3.411 -0.297378 125 135 113
-2.84291 0.382258 5.69455 255 0 0
1.26999 -3.36445 -0.254445 145 128 104
1.13932 -3.33037 -0.241461 123 115 148
1.09434 -3.31168 -0.225928 131 116 122
0.700816 -3.76021 -1.51791 111 118 133
0.995818 -3.33669 -0.198479 133 107 148
0.350701 -0.229813 4.20465 255 0 0
0.787656 -3.26838 -0.134504 153 149 114
-0.172198 -2.8807 -0.18087 126 147 106
2.05353 0.130999 4.88014 255 0 0
1.62737 -3.46007 -0.486327 120 151 122
-2.95132 -3.38823 0.276065 126 108 128
1.43359 -3.40947 -0.384473 139 112 130
1.56176 -1.30698 3.72646 139 145 108
1.97104 0.380276 5.26935 255 0 0
1.21241 -3.39708 -0.347537 136 142 107
0.0072871 -2.2787 1.71047 124 129 111
0.934847 -3.35026 -0.262483 120 136 127
-2.79148 -3.55861 0.0744226 135 121 117
0.661378 -3.33603 -0.189244 133 134 144
0.553608 -2.65672 0.738937 112 111 103
-4.00271 -2.54044 0.999323 106 115 129
1.57367 -3.50653 -0.557688 113 130 135
0.617646 -2.08031 1.62745 111 108 136
1.28578 -3.46054 -0.453443 143 126 132
0.76812 -3.40655 -0.292919 152 149 125
0.82412 -3.62191 -0.24407 135 123 135
0.822108 -3.53005 -0.288578 129 106 112
1.55388 -3.57448 -0.59742 131 135 151
-0.116664 -2.47817 0.978836 147 126 103
1.1816 -3.52563 -0.452377 137 116 128
1.08014 -3.51165 -0.435962 116 123 110
-2.7716 0.323825 5.62097 255 0 0
0.986257 -3.47916 -0.416002 149 144 140
0.835245 -3.42283 -0.306357 104 120 124
1.86079 -3.05573 0.383025 144 146 105
1.67153 -3.02186 0.465799 129 121 138
0.210434 -0.872667 3.76804 105 123 149
1.56657 -3.01396 0.524651 126 145 115
-2.47054 -2.80003 1.65443 135 111 108
-1.78195 -2.33949 2.49512 122 142 129
-1.17928 -0.965276 3.80213 113 129 111
-4.73198 -2.29959 2.13473 151 128 105
1.81109 -3.509 0.190473 133 111 114
1.70285 -3.41283 -0.0873595 142 106 110
-2.32032 0.00900014 5.80848 255 0 0
1.7315 -3.47402 -0.175097 109 120 116
1.63477 -3.6142 -0.380664 134 126 130
0.821095 -0.316854 4.24127 255 0 0
1.85209 -3.16545 0.126709 143 115 114
-0.911039 -2.24769 2.6272 132 134 148
1.80351 -3.31938 -0.0378073 145 148 147
1.71977 -3.39569 -0.176911 113 112 109
0.851192 -3.81231 -1.64254 126 148 120
1.58691 -3.522 -0.454853 148 144 129
-3.51176 -3.70063 -1.03459 148 140 119
1.53226 -3.35625 -0.688558 118 137 108
1.43767 -3.35031 -0.715608 119 105 134
1.09037 -3.27053 -0.566172 126 111 131
0.96308 -3.29194 -0.550486 151 141 139
-2.59459 -2.39386 1.99677 131 104 111
0.873514 -3.2395 -0.529275 148 149 146
-4.83523 -3.66601 -0.568509 139 139 116
0.789946 -3.28346 -0.52323 126 142 130
-0.214384 -2.48746 1.92833 142 104 145
1.75881 -0.291896 5.21096 142 151 153
0.614465 -3.20931 -0.450382 132 128 119
-2.56397 -2.61043 1.9805 136 103 107
0.484914 -3.20252 -0.434111 109 116 124
1.22966 -3.36682 -0.723506 148 139 117
-2.29747 -3.37163 0.879376 132 127 136
-3.62551 -1.56567 2.70313 136 142 105
0.562588 -2.83683 -0.0385052 134 151 137
0.580517 -3.2063 -0.517577 111 142 108
-3.03996 -2.7654 0.610298 106 103 119
1.47807 -3.4346 -0.914503 127 126 131
1.25449 -3.40048 -0.850093 153 133 136
-1.3332 -4.31021 -1.81584 146 117 131
0.151907 -3.73284 -1.32539 127 139 109
1.07722 -3.43201 -0.771099 145 142 115
0.894479 -3.34745 -0.715548 120 128 125
0.565714 -4.02711 -2.1395 133 109 152
-0.996122 -1.25747 2.94329 113 148 120
0.637163 -3.3162 -0.600227 129 117 129
0.461536 -0.904624 3.80202 140 116 123
-1.17597 -2.84217 -0.242776 141 131 106
0.548669 -3.32247 -0.59835 149 151 153
0.452357 -3.28898 -0.572113 115 144 126
1.47999 -3.50829 -0.988797 121 145 151
2.01687 -0.632573 4.9247 135 108 130
1.0831 -3.40577 -0.926598 151 135 105
0.87804 -3.4074 -0.78454 122 126 117
-1.1013 -2.58172 1.70339 139 137 110
0.52426 0.174103 4.01221 255 0 0
1.33496 -3.54718 -1.04403 104 149 136
1.22363 -3.56069 -1.00815 127 122 138
1.11285 -3.49449 -0.973098 152 111 146
1.09105 0.130462 4.18561 255 0 0
1.82852 0.0490573 5.85897 115 127 144
0.219353 -3.76798 -0.707559 128 126 137
0.925408 -3.44877 -0.928392 129 118 145
-1.09738 -2.48948 2.30094 102 133 135
0.839668 -3.50358 -0.880425 109 112 138
0.0769915 -2.3102 1.13311 124 109 130
1.23848 -3.59215 -1.10753 142 108 124
-1.01448 -1.97061 2.54033 115 146 105
-2.85107 0.0930449 5.27396 255 0 0
1.148 -3.55438 -1.1047 120 111 114
0.926655 -3.50368 -0.995477 130 133 138
-0.00642636 -2.61905 0.244529 119 141 107
1.9141 -0.803046 5.03599 134 118 120
-3.86804 -0.887792 3.87472 142 105 131
0.811617 -3.48798 -0.956649 134 103 119
0.595598 -3.45999 -0.868843 142 135 128
0.500026 -3.4601 -0.93289 150 133 102
1.24 -3.64064 -1.19741 129 135 142
-0.232951 -2.74616 0.0588185 110 110 137
1.1431 -3.7222 -1.47054 116 119 141
1.16773 -3.57232 -1.21843 140 111 120
1.03412 -3.59097 -1.17742 141 120 151
0.886729 -3.50829 -1.09125 151 153 107
0.0915084 -3.52015 -0.433983 122 124 150
0.518741 -3.51914 -0.993526 119 128 112
-4.17052 -1.24138 3.27671 130 132 120
-2.7549 -2.11237 2.51345 136 119 140
-0.56119 -1.44028 2.51825 137 113 136
-2.353 0.117006 6.38773 129 118 136
1.22231 -3.62044 -1.30569 139 134 118
1.11334 -3.6675 -1.24953 118 115 110
1.03611 -3.61441 -1.2563 142 147 148
0.769649 -3.56036 -1.14884 130 122 121
0.432276 -3.55768 -1.07028 143 116 149
-3.82524 -2.53742 1.61436 128 145 116
0.276091 -3.48993 -0.995377 148 142 147
0.998473 -3.64173 -1.33214 152 115 116
-2.33623 0.238779 5.65826 255 0 0
0.758594 -3.64571 -1.26089 145 138 118
0.540179 -2.04123 1.61658 112 140 125
-0.326982 -4.22263 -2.29902 148 142 106
0.734749 -3.62856 -1.21925 127 138 135
1.22425 -3.79367 -1.54569 121 151 147
0.820702 -3.6799 -1.37796 138 142 104
0.64369 -3.64592 -1.3443 124 143 147
2.34081 0.372304 5.28114 255 0 0
-3.2319 -3.00922 0.0744689 119 121 115
1.22273 -3.77968 -1.59131 152 116 123
-3.35853 -1.74743 3.26655 103 138 109
1.11062 -3.79264 -1.52468 113 129 109
0.840367 -0.977938 4.04819 147 122 107
0.903228 -3.75674 -1.50186 118 121 140
0.200434 -1.98917 1.714 106 150 148
0.809447 -3.71987 -1.44765 105 133 126
-3.27946 -1.87869 3.11167 147 116 124
0.636037 -3.89244 -1.85299 111 129 104
0.749809 -3.7297 -1.42387 125 144 149
0.369002 -3.28976 -0.258607 143 122 146
0.515004 -3.68413 -1.34899 147 151 141
-1.35754 -2.17976 2.75016 129 106 121
0.411638 -3.68407 -1.31816 142 140 105
-2.98839 -0.891141 3.81481 149 148 136
0.37155 -3.64388 -1.27522 134 136 115
-1.75221 -2.72733 1.80425 134 103 112
0.182066 -3.61549 -1.26483 116 123 134
-2.58413 0.363686 5.67004 255 0 0
1.05535 -3.84023 -1.64249 148 121 111
0.705446 -1.31605 3.35313 127 103 149
0.765414 -3.81394 -1.57612 130 114 126
-1.45283 -0.427726 4.59007 108 141 122
0.581666 -3.71641 -1.47413 152 105 110
0.41032 -3.74633 -1.4179 135 102 132
2.08417 -0.783483 4.94368 102 152 130
-0.750865 0.147757 6.14646 112 124 125
0.322318 -3.64559 -1.37752 136 138 146
0.308005 -3.83499 -1.35371 114 153 103
0.873622 -3.86704 -1.58181 108 133 105
-0.299142 -2.49612 0.877502 128 140 116
-0.96929 -3.13276 0.252741 152 103 106
0.773051 -3.87627 -1.52534 148 152 114
-0.926606 -2.52395 1.04292 151 127 103
0.606276 -3.83805 -1.48202 120 139 110
1.06281 -3.60472 -0.436002 118 124 151
0.200339 -3.75602 -1.68239 117 150 130
1.44979 -3.59513 -0.570366 135 114 138
1.13702 -3.51281 -0.476422 141 148 149
-5.19811 -3.14186 -0.0609889 102 128 144
-3.97666 -2.16416 2.31457 108 129 127
1.06744 -3.53286 -0.476371 149 135 115
-2.83935 -3.65534 -0.936158 130 120 151
0.889483 -3.52805 -0.395553 115 141 149
0.648122 -3.43064 -0.361126 139 125 137
0.448637 -3.28618 -0.442011 142 109 103
1.52528 -3.51506 -0.649912 125 148 116
-1.86901 -2.50225 2.13727 132 102 105
-5.2105 -3.03138 0.250792 148 127 104
1.46256 -3.49914 -0.645014 129 130 118
1.2476 -3.46972 -0.598689 124 117 150
1.16089 -3.43504 -0.519901 122 145 103
0.9992 -3.40159 -0.510489 145 122 108
-2.46983 -2.69661 1.89358 150 126 151
1.41541 -3.37895 -0.669669 126 124 125
1.37489 -3.3687 -0.653471 102 114 139
0.978735 -0.487933 4.46512 255 0 0
1.83553 -0.203925 5.33 255 0 0
0.151581 -3.6972 -1.5769 125 107 115
-0.709591 -3.76576 -0.909852 152 116 109
1.17495 -3.32254 -0.600308 119 117 120
-0.866404 -0.416623 5.6818 136 117 135
0.781957 -3.29507 -0.474014 139 103 148
-1.85587 -2.17425 2.79436 135 126 145
-2.27603 0.186661 6.44549 134 134 121
0.319954 -3.73419 -0.650192 128 145 112
-0.8403 -2.81867 -0.0449733 140 145 120
0.254933 -3.80165 -0.828055 153 147 116
2.34422 0.223497 5.04162 255 0 0
0.448337 -2.61711 0.700909 151 142 105
-0.753022 -1.49214 2.50553 148 134 137
-1.43731 0.501037 6.78855 131 141 121
0.313935 -3.57752 -0.588473 106 146 152
-1.08928 -0.442528 5.81933 135 113 126
0.121621 -3.84277 -1.12207 139 134 106
0.349507 -3.42659 -0.462421 142 103 139
0.221496 -3.60256 -0.88142 106 131 122
-0.257957 -4.35328 -1.87409 143 131 131
-1.28019 -3.40115 -0.923907 151 145 106
2.04945 -0.290887 5.06207 255 0 0
0.425351 -3.35043 -0.562268 103 115 133
0.375872 -3.37105 -0.6263 124 124 116
0.334776 -3.41323 -0.684215 130 111 117
0.303403 -3.48406 -0.803521 125 140 111
0.259753 -3.49635 -0.835775 136 118 119
0.252386 -3.54586 -1.00653 103 109 109
-1.74903 -3.15931 0.649052 113 132 108
-2.62818 -2.92611 1.29461 120 103 129
1.45994 -3.60841 -0.797336 135 110 113
1.5314 -3.43186 -0.832064 150 140 115
1.49396 -3.49276 -0.874347 133 110 135
1.43975 -3.57986 -0.965709 122 143 144
-2.83463 -3.45468 -0.34271 138 109 144
2.21345 0.0726557 4.81414 255 0 0
-0.984813 -2.75498 1.44774 110 105 144
1.38117 -3.58761 -1.05688 118 127 128
-2.54268 -3.50803 -0.446992 102 124 107
-3.61084 -0.695387 4.19454 122 141 109
-2.25116 -0.480059 4.47214 136 123 137
1.87059 -1.01489 4.97213 141 149 112
-0.472499 -3.78872 -0.921042 124 119 121
0.013786 -2.51921 2.35186 137 122 105
0.639566 0.234628 4.12646 255 0 0
1.35292 -3.64374 -1.17026 140 139 133
1.23752 -3.7798 -1.47465 151 135 140
-0.180935 -3.73852 -0.936858 111 107 142
0.6535 -3.78013 -1.63371 125 140 150
0.50054 -3.73508 -1.52105 110 130 142
0.370752 -3.688 -1.51596 104 140 112
-0.808992 -2.12875 2.53472 107 104 141
0.123685 -3.64596 -1.40109 126 125 112
0.818449 -3.8357 -1.7682 149 105 143
-2.6368 -3.47868 -0.552263 123 145 123
0.625076 -3.82187 -1.68968 119 132 139
0.0703429 -3.706 -1.52913 153 122 143
1.09357 -3.91796 -1.96481 144 132 104
-3.40247 -2.62961 1.25789 140 117 105
-0.644137 -2.94931 0.142567 119 110 138
0.429098 -3.81932 -1.71843 103 116 105
0.0350406 -3.71707 -1.56463 118 143 138
0.933004 -3.9385 -1.96109 125 106 139
-1.81411 -3.17992 -0.685562 113 119 149
0.566289 -3.89396 -1.88661 105 139 150
0.446772 -3.86566 -1.86353 109 139 109
0.309686 -3.83568 -1.77871 117 111 129
0.151832 -3.8066 -1.76074 143 122 121
-4.28031 -2.16125 2.2303 102 146 116
0.925348 -4.09282 -2.29074 119 140 118
0.0665914 -3.8013 -1.74087 116 121 112
0.994272 -4.01217 -2.1006 122 129 150
-0.0838218 -0.577473 4.36984 135 149 131
1.86621 -0.202866 5.01801 255 0 0
-3.96496 -2.82979 0.423604 109 146 136
-3.35546 -1.96127 2.82184 144 108 144
0.822861 -4.17348 -2.42866 116 123 110
0.890575 -3.98747 -2.0707 152 139 115
0.794978 -3.96419 -2.04858 144 117 129
0.502854 -3.91528 -1.95296 142 108 107
0.352753 -3.89497 -1.90097 119 112 143
0.0513059 -3.8657 -1.77267 151 113 144
-0.525945 -2.79122 0.147341 128 108 143
0.883213 -4.02045 -2.18808 119 130 110
0.693371 -3.99684 -2.05337 109 111 146
-3.41405 -1.99076 2.84898 117 103 136
0.594079 -3.97738 -2.09221 139 128 125
0.34757 -0.149469 4.18177 255 0 0
0.509509 -3.95183 -2.01952 137 135 138
0.416457 -3.97748 -2.00301 147 110 137
0.213543 -3.94925 -1.9218 106 132 103
0.0212067 -3.86769 -1.86587 140 151 111
2.60658 -0.40305 4.96195 146 138 152
0.462777 -4.03341 -2.09431 123 137 125
0.361337 -3.99505 -2.08577 145 112 111
0.89933 -4.14043 -2.39461 152 125 143
-0.0546551 -0.958289 3.66865 117 114 127
0.51123 -4.09808 -2.20547 126 140 145
-2.89047 0.46851 5.83055 255 0 0
-4.46117 -1.4393 2.96093 125 109 151
0.423141 -4.04837 -2.21654 119 135 132
0.229157 -4.04431 -2.12808 150 104 153
0.589676 0.287789 4.20338 255 0 0
-0.245308 -0.794775 4.09704 120 137 149
0.0427235 -3.99357 -2.09012 105 143 146
0.752815 -4.15066 -2.41629 104 143 112
-3.07252 -3.14462 0.669909 140 151 133
-0.17559 -3.98267 -2.05791 125 126 125
-3.53334 -2.94911 0.0979221 112 116 119
0.583001 -4.17897 -2.46082 140 131 102
-5.70142 -3.3772 -0.515787 129 122 138
-4.26493 -3.76492 -0.589899 127 149 127
0.99819 -1.16848 3.97154 117 129 140
0.24388 -4.13735 -2.31972 103 132 135
0.126551 -4.11896 -2.32779 121 120 131
2.24701 -0.357487 5.06485 255 0 0
0.038962 -4.06299 -2.27266 114 135 141
-0.239801 -4.04951 -2.20939 125 137 120
2.28553 0.10075 4.84649 255 0 0
0.787223 -4.2774 -2.61361 140 113 111
0.711537 -4.21061 -2.54904 148 122 140
2.02524 0.359149 5.25742 255 0 0
0.489905 -4.18504 -2.51185 125 129 135
-0.0496396 -4.1783 -2.32672 135 110 148
-2.97509 -3.49263 -0.245881 138 115 147
0.763227 -4.31672 -2.67101 114 125 122
-0.974563 -2.15344 2.55069 107 148 144
0.677884 -4.25719 -2.63981 103 106 148
-0.0856807 -0.700471 4.28911 151 138 131
-1.00466 -2.44902 1.13058 136 125 105
0.470679 -4.25646 -2.58383 147 130 138
0.27529 -4.22727 -2.55874 141 119 120
-1.89628 -1.20221 3.14535 141 144 104
-1.01664 -1.65403 2.31344 151 131 137
0.186307 -4.24006 -2.46976 123 125 153
1.00213 -0.378909 4.40851 255 0 0
-0.0188415 -4.18284 -2.46612 109 118 127
-0.718969 -1.51037 2.95422 138 139 143
-0.099388 -4.20092 -2.4285 120 129 153
-0.177604 -4.14723 -2.4218 149 104 133
0.0216948 -2.3092 2.26062 109 136 143
0.669674 -4.32091 -2.69407 137 104 132
0.121056 -4.18076 -2.50198 110 105 105
-4.58843 -3.79878 -0.656134 106 122 113
0.201356 -1.88331 2.01875 133 128 119
-0.432204 -1.95014 2.31968 148 146 109
-0.0772651 -4.21486 -2.4457 130 133 118
0.345429 -2.14068 1.4436 140 140 140
0.50821 -3.88723 -1.50129 132 122 112
-3.24637 0.21679 5.65615 255 0 0
0.753517 -3.83407 -1.55416 113 129 123
0.670849 -3.8294 -1.52088 140 124 130
-1.48439 -0.343648 6.12437 145 107 140
0.284591 -3.77864 -1.38678 148 133 147
0.502893 -0.657602 4.16974 125 115 129
0.126707 -3.75659 -1.37551 128 141 132
1.12175 -1.74034 2.05272 138 128 149
-0.421392 -4.0219 -1.28613 143 112 126
1.86776 0.216045 5.03062 255 0 0
-3.15177 -2.39592 1.68482 111 150 133
0.0601293 -1.48009 3.27531 106 105 143
1.03351 -3.85169 -1.73537 118 145 122
0.968206 -3.80267 -1.70585 116 137 115
-4.45997 -1.47994 2.8023 123 141 150
0.411466 -3.70747 -1.45444 129 108 144
-0.0547589 -4.1159 -1.47109 131 139 127
-0.0221635 -0.559193 4.44564 125 109 143
0.455215 -0.22467 4.01708 255 0 0
-0.0155264 -4.05273 -1.47198 145 146 119
-4.21002 -2.64645 1.37475 111 143 137
-0.046332 -4.04149 -1.55747 127 110 123
-0.126129 -4.09931 -1.59485 132 138 107
-3.7144 -1.68958 2.47887 121 117 152
-0.136007 -4.17447 -1.69388 148 132 105
-0.141552 -4.18298 -1.78049 133 149 151
-0.263985 -4.34405 -2.01449 136 118 105
0.0416868 -3.83517 -1.35943 111 144 127
2.28977 -0.953711 4.98342 136 129 126
-0.0280126 -3.9574 -1.47276 124 110 134
-2.88974 -3.07766 1.02548 144 136 104
-0.179772 -4.08813 -1.81916 139 102 131
-0.230217 -4.25276 -2.06133 116 142 128
0.0672046 -3.73402 -1.37263 137 130 151
0.754927 -1.47828 3.50329 142 109 125
0.380836 -2.39494 0.695325 122 123 141
-0.0147692 -3.72769 -1.48429 102 114 145
-0.0583984 -3.85614 -1.61407 150 112 143
-0.114344 -3.97382 -1.77898 138 112 146
-0.274421 -4.15309 -2.12753 125 132 118
-0.310829 -4.17902 -2.21788 107 104 147
0.108433 -3.67958 -1.40025 144 116 112
-0.00928251 -3.73727 -1.57531 122 114 143
0.19923 -2.15917 1.32448 109 110 106
-0.165398 -3.92124 -1.90801 134 109 138
-0.172053 -3.99453 -2.01925 132 123 121
-1.68627 -0.824104 3.69207 106 104 112
-0.261664 -4.04243 -2.17758 114 123 145
0.145357 -2.53896 0.374843 128 115 127
0.9622 -4.05974 -2.15804 132 123 147
1.17068 -1.40797 2.7632 106 143 133
0.877688 -4.18045 -2.45752 124 130 149
0.792745 -4.28222 -2.59767 130 147 122
0.280918 -2.25669 1.25043 150 131 130
1.73783 -0.0162313 5.69731 105 132 124
2.65159 -0.271824 5.23524 125 147 111
-1.53202 -2.9383 -0.292927 128 110 103
1.78354 -0.102256 5.50686 148 143 128
-0.0699099 -2.29368 1.42283 106 119 110
2.53981 -0.301507 5.147 118 124 136
-1.73476 -2.69294 0.279495 109 112 135
1.74534 -0.187305 5.42554 115 105 113
-0.663157 -2.82602 0.384413 124 152 132
2.53932 -0.35982 5.09044 109 135 135
-1.92028 -1.00385 3.79913 151 106 125
1.80303 -0.250795 5.30687 124 136 128
-1.03958 -2.66668 1.51789 117 153 129
1.63119 -0.230881 5.33779 129 120 133
2.20324 0.3542 5.25205 255 0 0
2.40477 -0.376046 5.02072 126 129 118
-2.7226 0.0789455 5.29005 255 0 0
2.32566 -0.342956 5.06677 184 67 62
-4.3907 -1.58693 2.60979 112 135 116
-1.88006 -4.35259 -1.57766 130 107 123
2.11732 -0.359585 5.07905 137 114 133
0.877691 -2.30788 1.8469 127 124 131
2.43234 0.1711 4.95766 255 0 0
1.69045 -0.242866 5.28724 119 103 105
2.38409 -0.424552 4.9532 152 147 123
-0.906224 -2.79717 -0.0237801 127 126 105
2.17495 -0.395727 4.9869 121 111 109
-2.30971 -2.39096 2.5212 121 112 144
2.14141 -0.370223 5.05676 144 135 121
-0.524439 -3.02075 0.00570948 133 115 128
-0.687259 -1.69036 2.22968 121 148 126
-2.60591 -2.81083 1.79721 148 153 108
1.76189 -0.328384 5.15668 147 108 106
-2.39443 0.376811 5.7092 255 0 0
1.62784 -0.293765 5.18104 143 148 117
2.35697 -0.491538 4.87724 103 152 119
1.70619 -0.384532 5.06127 153 146 145
1.59896 -0.32506 5.10297 112 122 138
2.49216 -0.526694 4.72339 141 110 143
2.30911 -0.508772 4.76953 122 147 134
0.279853 -1.43051 2.50515 125 126 133
2.14454 -0.496872 4.8303 139 112 121
-0.176379 0.0151755 5.99708 105 149 150
0.369251 -0.318582 4.21354 255 0 0
-0.833133 -0.560246 4.53488 131 109 125
2.05975 -0.464965 4.83681 117 105 120
1.8374 -0.435185 4.92341 117 115 108
1.7383 -0.412625 4.91898 107 150 128
-3.73667 -2.66808 0.765462 129 137 150
1.48819 -0.355832 5.02208 120 136 120
-2.84914 -1.28514 4.35129 145 138 119
2.1097 -1.01135 5.07335 129 147 117
1.84207 -0.968994 5.11991 121 125 145
1.64454 -0.929626 5.20107 121 103 116
1.03351 -1.70087 2.07116 113 127 139
-1.29825 -0.721204 4.31944 135 118 127
2.51651 -0.982908 4.87255 135 114 138
2.40509 -0.981347 4.95903 144 133 124
-0.156968 -0.117541 5.80915 112 115 111
2.19723 -0.947586 4.99357 123 136 114
1.84868 -0.913273 5.10303 151 127 125
0.965987 -1.79434 1.87907 139 134 149
1.61823 -0.870316 5.19635 149 125 141
-5.0164 -2.8607 1.06104 149 109 122
1.52911 -0.812241 5.21082 104 104 111
2.45885 -0.85834 4.88521 105 149 121
2.40642 -0.851597 4.87263 135 141 141
0.247771 -1.7373 1.96392 109 116 139
1.7525 -0.760925 5.08424 115 122 152
1.68418 -0.770762 5.13345 124 136 104
-0.740182 -3.8616 -0.947214 114 118 133
-3.01329 -3.39021 -0.296799 135 120 105
1.54282 -0.738602 5.16507 126 129 141
0.0144718 -2.3138 1.67585 148 123 117
2.46852 -0.816019 4.8224 120 145 121
1.44717 -1.29253 3.84895 120 111 117
0.251926 0.254548 4.13068 255 0 0
2.39139 -0.815306 4.85893 152 138 123
-3.2717 -2.24564 1.94721 113 122 137
2.2417 -0.791879 4.89026 112 131 112
2.01738 -0.732861 4.96072 140 152 127
2.49428 -0.72589 4.75249 109 106 119
-2.66243 -2.64444 1.6907 106 123 117
2.21043 -0.673741 4.83247 133 147 146
-4.0978 -2.88517 0.338141 127 137 139
1.72973 -0.59909 4.97242 139 150 119
-1.50103 -1.22756 2.98154 128 121 137
1.62548 -0.585163 5.0252 116 108 134
-3.40752 -1.50285 2.73479 111 121 108
-1.36642 -1.54873 2.46134 144 129 107
1.54986 -0.567409 5.06371 148 118 150
-2.75882 0.309513 5.59122 255 0 0
1.47988 -0.543163 5.1383 104 126 117
2.4947 -0.648028 4.71327 103 124 129
2.1647 -0.563141 4.77282 108 113 121
2.12272 -0.607242 4.83349 145 146 131
-1.73423 -2.83536 0.36344 152 138 125
-2.21053 -2.58824 1.9729 143 110 141
1.96076 -0.555152 4.91205 119 129 126
-1.10716 -2.87716 0.371451 128 142 147
1.85541 -0.524037 4.93652 116 122 139
1.74677 -0.50231 4.96895 107 146 120
0.751826 0.527189 4.70845 255 0 0
0.695307 -1.90925 1.79472 122 109 124
1.56482 -0.502664 5.04123 122 122 117
0.644075 -0.453371 4.18165 255 0 0
2.53112 -0.953209 4.93015 128 138 114
2.52793 -0.874989 4.90968 130 144 108
-2.83249 -3.0596 1.00025 138 151 150
-1.51293 -2.87963 -0.236562 136 139 128
2.52432 -0.80261 4.84016 117 103 141
1.23151 -2.08302 1.68041 113 104 103
2.48125 -0.588625 4.73039 103 131 151
2.38707 -1.0438 4.84153 148 106 104
2.27999 -0.996417 4.94348 110 135 120
-2.45817 -3.49022 -0.574477 110 139 107
2.11557 -0.987436 4.99001 109 150 124
0.763276 -1.01633 3.51804 152 128 150
1.99121 -0.978424 5.02364 112 103 104
1.9217 -0.96078 5.03041 145 104 102
0.619352 0.12848 3.89564 255 0 0
0.826108 -2.21487 1.79782 136 107 103
1.8174 -0.938338 5.09914 116 103 120
-5.59368 -2.90034 0.506673 142 137 117
1.73307 -0.919819 5.11978 119 121 127
1.6521 -0.938502 5.15318 119 147 144
-2.83842 -3.42159 0.227319 123 122 134
1.52425 -0.90963 5.18646 150 150 142
1.43931 -0.868663 5.18468 125 144 128
2.37733 -1.10664 4.78216 105 135 119
2.2422 -1.05995 4.83068 106 125 110
-4.19439 -1.54541 2.68632 146 116 145
2.06921 -1.02862 4.88718 152 132 130
1.94018 -1.03283 4.90784 107 120 117
0.513236 0.23985 4.10595 255 0 0
0.91927 -1.66567 2.14292 127 116 115
1.62813 -0.973905 5.0516 103 136 109
1.52374 -0.943085 5.06663 122 114 122
-0.877994 -4.51498 -1.9707 106 135 118
0.371673 0.220599 4.07931 255 0 0
1.43362 -0.940695 5.12764 102 145 146
-0.303778 -2.47508 0.73884 112 123 153
2.42689 -1.15446 4.74271 126 140 109
2.28153 -1.12192 4.73923 118 153 117
2.20701 -1.10265 4.78658 134 124 103
2.02156 -1.09439 4.85102 124 130 107
1.95697 -1.06768 4.83689 132 124 139
1.74377 -1.02773 4.92694 115 110 151
1.51674 -1.01919 4.96857 127 152 115
1.87826 -1.15554 4.64727 124 133 121
1.45169 -0.971849 4.98544 131 146 118
2.18735 -1.12609 4.71389 103 121 103
-1.87367 -2.8335 1.90652 123 120 143
2.05591 -1.15023 4.7318 129 105 142
